ply
            format ascii 1.0
            element vertex 1030
            property float x
            property float y
            property float z
            property uchar blue
            property uchar green
            property uchar red
            end_header
            -68.080252 -54.174279 1521.724559 62 72 77
-52.407292 -5.261141 1522.054800 97 107 110
-57.415603 65.919597 1513.787259 5 7 16
-56.281263 82.623344 1505.906802 48 55 58
-44.542908 -38.365501 1536.560396 158 176 178
-51.524209 93.349571 1503.330118 88 91 95
-42.125901 -7.265343 1514.870704 39 51 56
-41.215982 -51.228397 1570.774336 19 21 23
-40.797760 -53.223132 1566.400052 19 21 23
-38.290048 25.968450 1524.703598 157 164 172
-33.296735 34.636092 1520.328712 10 11 13
-21.261749 13.098584 1512.006728 44 51 50
-15.610411 -75.573062 1546.049942 0 1 6
-13.622202 -41.677669 1521.498164 20 26 27
-9.548730 -23.830774 1512.795549 96 102 106
-6.122790 -4.803844 1548.246156 97 101 103
3.351930 -58.619926 1534.846826 101 117 117
1.780462 84.900485 1497.470443 102 117 127
14.018220 -70.830882 1593.889522 78 90 79
12.004789 -32.648552 1502.948355 38 39 41
12.004789 -32.648552 1502.948355 38 39 41
6.437336 85.155066 1495.284649 0 1 4
6.705336 84.566800 1493.567841 0 0 1
18.651875 -67.430502 1569.661111 13 21 30
19.150561 -62.356631 1539.966877 132 153 152
23.559214 36.132909 1492.047910 115 117 124
45.051998 -77.955121 1562.210763 37 42 42
41.527073 30.203741 1491.823437 118 124 132
51.409978 -62.474674 1543.376702 96 107 107
51.661487 -63.307707 1541.385736 96 107 107
61.357206 -47.270498 1525.368565 81 89 87
63.954636 -75.371555 1548.184588 0 8 13
64.040484 -76.150738 1546.391048 0 8 13
65.912816 -49.760789 1526.080462 63 71 67
63.666753 -12.054207 1501.474104 39 46 47
79.190135 -69.640636 1535.371029 65 66 70
79.229534 -69.053745 1536.619925 65 66 70
84.616308 -38.739272 1508.726619 103 114 115
91.077192 -64.465211 1524.824836 51 59 57
107.226016 -49.242322 1513.822999 1 1 3
-56.656341 -22.198276 1512.386771 151 157 160
-42.066706 66.297012 1516.685521 81 92 100
-16.107219 -41.584060 1524.183055 32 39 40
-8.219165 -25.281993 1509.222723 94 100 103
-17.078858 77.966542 1498.298771 6 3 4
0.944915 -20.729888 1495.059932 39 40 42
3.790052 -62.154343 1578.446154 137 153 153
11.163965 -59.312217 1583.685692 154 174 175
12.882580 -35.017642 1497.704006 41 43 45
12.882580 -35.017642 1497.704006 41 43 45
5.918849 82.931822 1491.913115 5 3 4
22.967352 -59.998789 1568.485174 173 194 193
29.920596 -69.388062 1586.900759 54 68 66
37.181239 -61.828814 1559.572704 71 83 83
41.544707 -71.765049 1578.395770 101 108 102
28.124463 64.846322 1479.287931 1 5 8
52.403275 -80.832555 1568.377195 101 118 109
41.874496 27.833794 1487.363724 120 124 131
51.891146 -56.243726 1545.078681 74 82 79
58.377842 -53.419998 1527.968661 81 95 95
56.402365 -1.609758 1497.496406 106 117 120
64.750254 -69.567210 1550.598591 49 56 56
64.930111 -33.764014 1514.564627 98 107 108
64.930111 -33.764014 1514.564627 98 107 108
62.033859 30.392105 1474.761764 0 0 3
62.222700 32.024335 1476.918691 0 0 3
77.039179 -69.784990 1546.432707 69 73 69
73.611168 -17.465558 1504.402635 53 60 61
83.058040 0.696714 1477.628021 96 105 104
104.579743 -61.358664 1523.030480 61 70 69
105.066136 -62.442216 1521.247998 61 70 69
105.589196 -48.266533 1516.045889 1 0 2
105.589196 -48.266533 1516.045889 1 0 2
106.686493 -48.045016 1516.589555 1 0 3
109.886198 -61.518319 1527.198772 157 187 185
111.846214 -23.285489 1496.469217 2 4 9
111.971788 -23.415963 1496.258752 2 4 9
-67.607711 -63.415501 1540.638550 77 90 92
-77.178216 44.560188 1502.447986 0 0 3
-63.086849 53.962488 1510.879815 4 6 11
-40.446868 -36.045682 1589.357878 49 58 60
-39.407253 -34.301725 1548.519057 57 67 72
-38.992597 -35.911663 1546.572207 57 67 72
-52.678270 81.690025 1502.752119 17 18 21
-54.869965 102.549431 1506.912646 1 1 2
-25.401324 -45.134700 1613.190492 10 17 16
-20.985606 -37.697632 1529.333397 154 169 171
-17.927385 -43.235639 1617.509856 11 13 14
-3.524100 -61.316889 1600.723905 16 25 24
-7.368822 -26.138652 1507.820898 93 98 104
2.060578 -58.203792 1585.189122 136 154 154
14.981615 -63.334932 1591.464506 17 21 23
12.967519 -34.994720 1497.719721 38 39 41
12.967519 -34.994720 1497.719721 38 39 41
26.166387 -67.075543 1593.800546 174 193 194
5.786257 81.660819 1490.318608 1 3 5
29.580540 -63.169344 1578.160814 25 34 35
10.709934 77.865099 1490.320223 90 96 102
34.502908 -64.175699 1574.016550 78 88 85
18.031224 51.589434 1487.942336 43 48 52
37.499856 -70.471115 1584.678804 87 98 92
24.906983 62.808862 1480.397781 123 140 150
46.564319 -76.219399 1569.174962 45 43 41
43.976474 -57.953903 1541.834483 31 36 35
48.020417 -77.845885 1569.799099 97 110 109
7.588618 57.343584 1473.279273 3 2 3
52.537947 -53.031207 1540.861010 14 20 21
41.906071 27.770099 1487.272287 118 125 131
56.701620 -71.971153 1554.397382 57 56 54
59.341778 -44.058271 1522.887732 44 53 56
45.633989 58.697494 1469.841238 86 91 98
58.211752 -0.871702 1493.018707 24 32 36
81.913644 -71.022010 1531.197631 179 216 212
86.298285 -64.939852 1542.403649 0 2 4
86.298285 -64.939852 1542.403649 0 2 4
86.693262 -67.719216 1538.938599 0 2 4
83.986044 -34.157115 1503.382290 40 44 46
90.840400 -31.283649 1500.038463 29 35 39
102.259271 -46.128143 1513.479058 163 186 184
105.678856 -47.280926 1517.518937 4 1 3
106.256206 -48.453434 1516.039343 4 1 3
-47.203994 -38.316098 1597.133115 8 11 17
-47.831816 -33.301527 1601.997554 8 11 17
-41.191209 -8.336105 1522.915947 33 42 49
-38.269530 -18.204792 1526.700889 119 129 134
-55.593336 85.310882 1509.259736 42 52 56
-20.541103 -37.982016 1631.010625 159 176 168
-41.937096 71.219273 1522.097380 102 116 127
-34.965483 36.871870 1512.249147 3 0 3
-42.961415 91.572571 1503.056527 83 94 102
-29.489280 2.959620 1503.847658 91 97 98
-5.485077 -46.063573 1521.194153 27 29 31
0.471221 -55.974101 1588.260109 140 156 155
6.923209 -60.742105 1592.457932 25 34 45
12.944457 -35.029182 1497.686237 37 40 44
12.944457 -35.029182 1497.686237 37 40 44
45.346538 -75.729143 1572.623480 155 177 173
45.346538 -75.729143 1572.623480 155 177 173
48.259423 -78.819923 1574.389155 0 5 10
50.290714 -78.446527 1568.595032 39 42 44
51.237065 -59.731471 1548.841471 96 108 106
51.744502 -53.211982 1534.736948 32 40 43
52.739908 -61.195032 1527.244587 32 40 43
63.634830 -69.881178 1558.961557 2 9 18
63.808915 -71.113626 1557.752034 2 9 18
65.771239 -60.878934 1550.731491 15 17 19
56.195713 -2.816027 1495.583297 106 114 117
56.210786 -2.151064 1496.141851 106 114 117
63.795027 -39.356968 1518.266281 23 28 34
65.430206 -24.859802 1504.432994 43 49 50
55.338326 37.693915 1476.949456 85 86 90
55.730790 34.678495 1474.492675 85 86 90
55.298802 53.355917 1470.237275 2 1 4
78.354242 -66.973045 1540.998080 72 71 67
79.137736 -63.893581 1531.807350 54 59 58
86.914888 -67.862443 1538.722816 5 7 9
77.904078 17.168482 1472.606859 101 115 121
89.900623 1.723230 1477.967392 1 3 7
108.031039 -25.017908 1494.071286 136 161 174
-60.826980 0.056514 1608.081693 144 162 168
-50.011406 -52.505938 1542.612113 150 164 171
-69.984056 27.122520 1520.728801 139 143 152
-34.531355 -39.463898 1602.116657 67 79 76
-35.114448 -34.461139 1526.392986 56 63 69
-55.500857 87.747749 1522.090992 64 69 78
-55.258270 85.951511 1509.701012 44 54 60
-21.081599 -42.377387 1620.938592 91 92 89
-52.764349 85.574086 1506.203939 13 13 16
-17.845501 -37.393400 1627.611837 25 21 19
-13.004086 -47.314323 1559.837441 44 53 54
-23.730548 0.133564 1500.037023 83 84 88
-0.231777 -57.370061 1587.082142 140 155 157
6.847334 -60.590597 1592.619834 31 39 39
26.809997 -62.002789 1573.626680 55 73 77
39.882905 -72.741422 1584.510437 70 79 75
4.369834 85.597326 1492.847516 0 0 0
39.667833 -69.959652 1572.648549 100 114 108
40.104870 -74.247607 1564.575586 31 38 39
43.539832 -71.890091 1578.334094 60 71 72
43.144577 -60.009477 1553.836348 59 64 61
17.754036 70.661701 1486.937703 100 107 114
24.299289 46.221186 1501.137648 106 110 117
48.277535 -64.440654 1550.577267 22 31 32
54.869568 -79.908186 1563.281685 51 54 54
51.495166 -61.094616 1547.521944 98 107 106
61.240831 -74.406960 1552.222023 205 228 226
61.240831 -74.406960 1552.222023 205 228 226
60.788445 -69.737549 1550.707923 132 144 140
58.398277 -51.802408 1531.665552 78 91 91
61.234747 -43.744906 1525.047443 32 33 35
67.289814 -50.371314 1523.790302 43 52 53
45.944429 60.641400 1470.818976 89 97 103
64.837108 -18.668569 1501.509390 36 41 45
84.026311 14.245033 1473.093126 1 0 6
86.556062 4.213058 1479.773429 95 106 117
100.627335 -61.604509 1523.733743 61 69 68
100.066432 -53.732792 1513.629218 107 126 130
89.383371 2.117712 1478.635694 2 2 9
89.383371 2.117712 1478.635694 2 2 9
89.518203 3.276405 1479.331352 2 2 9
102.041704 -47.055613 1512.784977 201 225 223
-68.211524 -58.085327 1544.286825 73 85 89
-29.018365 -35.762634 1615.532968 0 6 14
-27.200348 -37.922339 1611.644976 102 115 113
-26.520765 -40.352902 1610.888767 102 115 113
-38.739660 -33.475265 1527.844635 70 77 83
-38.739660 -33.475265 1527.844635 70 77 83
-7.089155 -55.586170 1623.194433 161 195 190
-23.810403 -36.284493 1531.122137 166 179 188
4.024422 -60.757165 1594.674922 147 169 170
7.579853 -61.114334 1597.452636 40 48 49
-6.692146 -45.176506 1521.813380 20 24 26
-6.669731 -3.823736 1548.294629 94 103 104
-6.669731 -3.823736 1548.294629 94 103 104
18.749024 -62.813388 1565.724189 149 170 171
18.749024 -62.813388 1565.724189 149 170 171
23.800223 -64.938165 1577.482049 44 53 54
-20.749506 52.426040 1490.054643 0 0 0
40.199176 -73.348482 1570.463435 89 106 105
48.993023 -76.369951 1574.833514 0 3 7
49.515801 -78.647924 1574.168205 0 3 7
57.264201 -55.960067 1540.493081 25 31 35
63.126475 -65.706032 1560.204089 0 2 4
61.657704 -45.055627 1524.204106 29 33 34
42.416302 22.455934 1492.662574 109 114 120
67.182736 -29.253681 1509.524755 29 33 34
79.367000 -66.058695 1529.679591 53 58 57
83.663958 -65.450472 1539.398551 206 239 247
63.831114 0.506835 1488.409083 26 31 30
-76.735817 -35.008522 1501.704855 74 83 90
-32.026727 -29.424477 1609.768566 96 107 108
-26.661671 -40.442051 1610.902893 101 115 111
-17.280197 -40.504209 1629.817622 182 206 204
-4.222016 -63.494442 1618.592240 90 111 117
-4.157710 -63.668334 1618.555946 90 111 117
-14.303163 -51.132472 1557.110207 49 59 64
8.446856 -65.693581 1613.187802 5 2 5
11.681636 -66.956205 1604.641395 34 47 50
-7.243482 -43.617292 1522.229378 18 26 24
-13.649815 -3.809620 1550.209846 33 41 44
-13.649815 -3.809620 1550.209846 33 41 44
19.186710 -64.837134 1565.175056 152 168 170
23.220084 -68.200195 1579.702860 85 97 97
27.382545 -72.711154 1590.468214 176 195 199
27.382545 -72.711154 1590.468214 176 195 199
38.450884 -75.149066 1581.154030 88 96 93
11.333114 -28.523373 1498.834059 37 41 42
48.712303 -81.827055 1566.330703 126 132 129
46.197394 -51.550159 1536.972663 179 197 203
46.197394 -51.550159 1536.972663 179 197 203
61.170278 -69.484689 1555.042306 206 232 237
62.122214 -62.231511 1560.802036 1 3 5
20.446492 59.802929 1484.042577 83 87 93
65.076928 -71.587135 1550.067662 50 56 57
21.519318 70.175150 1484.021315 83 87 93
61.451341 -43.949615 1524.471093 29 33 34
74.093430 -69.994099 1542.072379 77 85 81
56.282219 8.801683 1493.985602 39 45 49
83.899209 -66.213050 1535.808954 200 216 223
63.350128 3.012287 1488.935607 27 28 31
59.446744 38.185818 1473.987244 66 84 90
85.407334 -31.573633 1510.661154 97 105 108
99.678979 -45.974438 1514.624188 79 69 66
84.489090 8.167017 1478.367455 84 91 98
107.534525 -20.861891 1495.381663 158 171 184
97.409426 7.131236 1474.387156 0 0 0
109.639939 -19.087777 1488.684257 210 224 231
-45.279723 -23.237115 1606.131527 45 47 49
-34.581704 -14.747692 1623.668273 71 82 78
-67.990036 -3.731411 1504.504018 140 145 153
-52.321272 -29.128518 1519.141002 101 106 112
-39.742657 -31.306105 1528.326321 91 99 103
-3.672548 -65.935339 1618.388586 92 116 121
-49.000801 9.648658 1504.725139 94 96 103
4.392683 -62.307942 1594.455266 161 175 175
-29.508756 -1.163180 1486.427205 3 4 10
-7.733950 -42.405349 1522.415164 21 29 32
27.464079 -75.018451 1584.175249 152 165 167
40.412609 -77.210958 1582.677148 72 81 82
41.547334 -77.117393 1567.177733 91 100 101
41.547334 -77.117393 1567.177733 91 100 101
47.189849 -54.472045 1536.625745 183 197 202
30.133484 0.598564 1522.532497 178 192 198
30.133484 0.598564 1522.532497 178 192 198
51.293525 -49.757347 1535.014262 46 47 49
57.505083 -9.198235 1501.001370 106 109 112
78.969074 -65.594839 1529.989470 54 61 62
100.073227 -58.861938 1520.575318 72 74 75
101.078113 -60.641954 1520.777079 72 74 75
100.334657 -47.376921 1514.526749 83 77 73
89.084545 -10.959842 1479.241387 69 86 94
-36.183164 -28.979356 1611.856722 79 95 95
-16.148695 -34.482782 1628.421784 189 211 214
-55.703187 -12.802209 1512.128526 154 157 163
-2.229878 -62.064849 1586.942805 150 164 169
-16.874285 1.217799 1490.323695 1 0 4
38.907452 -47.658851 1517.164792 160 166 174
21.037916 26.734159 1519.281409 38 38 40
55.812929 -74.178101 1553.032075 67 74 75
60.435974 -61.210186 1540.650421 26 34 37
83.904708 -65.111213 1539.627821 220 240 246
102.484099 -31.721776 1503.147129 90 92 96
113.018059 -35.753299 1510.336291 225 243 251
110.224969 -16.564795 1488.358933 211 224 234
-50.352757 -14.570735 1608.328531 127 149 150
-51.202581 3.276946 1612.333598 49 55 56
-51.202581 3.276946 1612.333598 49 55 56
-46.686802 -12.761277 1609.306120 16 21 21
-32.646877 -29.847512 1618.987343 1 5 6
-31.423011 -23.512128 1621.131289 2 10 15
-26.703460 -44.252346 1610.286989 98 109 110
-16.945530 -50.406936 1623.503882 156 172 170
-4.806990 -50.674071 1616.392462 191 207 214
-4.806990 -50.674071 1616.392462 191 207 214
-45.202345 -10.090783 1518.180945 83 90 97
1.514690 -55.088746 1591.421455 164 172 175
25.316989 -63.942120 1565.213754 175 186 195
43.029405 -74.432268 1575.604836 64 70 71
42.576252 -80.461906 1569.366820 93 101 104
42.324801 -79.766492 1569.094481 93 101 104
45.656450 -75.134467 1573.204977 212 225 232
41.387146 -66.661028 1554.579844 19 20 24
15.853750 12.599545 1542.778042 89 97 100
22.067111 24.904733 1519.477477 193 204 211
53.916206 -46.645425 1525.402655 61 64 70
89.587249 -25.232181 1501.240493 55 37 36
101.836259 -38.074957 1508.346338 98 100 106
109.440843 -14.856730 1487.961141 210 225 232
-79.692327 -29.895368 1510.275895 77 87 94
-40.139834 3.907351 1626.949437 0 5 7
-49.020336 -1.887618 1501.372221 2 6 12
25.317085 -69.779503 1582.596934 169 178 186
25.576514 -63.128274 1564.773995 177 186 194
12.606596 -38.107068 1497.658842 0 0 1
44.047025 -23.998254 1537.786442 182 188 196
57.221404 -61.713740 1557.591817 149 155 164
38.021431 -38.761592 1514.457694 167 176 183
63.158664 -41.509060 1515.430161 85 97 106
69.124747 -41.829907 1504.882527 2 2 4
104.404565 -26.597513 1502.539631 170 183 193
109.301824 -14.183715 1487.691290 211 224 233
-32.424189 -29.828732 1617.408164 10 10 15
-87.140524 -18.317522 1501.707656 78 90 95
-14.844927 -41.840097 1627.112976 203 214 223
-27.216119 -40.519584 1599.384897 124 118 120
-34.393266 23.159649 1566.588675 112 125 132
-4.779478 -44.711441 1600.371906 201 211 221
-0.160005 -51.290817 1601.512312 94 101 109
-30.043844 26.260733 1550.575712 77 89 99
-32.516900 60.092321 1529.791179 13 15 17
10.614463 -39.564669 1575.713260 203 210 223
-32.029371 98.532345 1515.610375 196 219 220
27.227098 -21.735756 1569.025048 202 210 220
32.306930 -13.880538 1564.508685 205 213 223
12.340147 39.617961 1535.531612 160 176 181
37.638622 -54.375762 1555.771619 157 163 173
36.984042 -50.132491 1554.993750 219 233 246
-3.305570 103.832225 1497.298781 202 224 227
42.146684 -43.774768 1546.908055 230 240 252
2.326570 97.114157 1493.370610 166 185 189
2.326570 97.114157 1493.370610 166 185 189
44.331605 -6.792785 1527.318073 224 235 243
17.820728 91.994719 1488.896368 213 233 236
54.812820 -39.289068 1538.183881 140 145 156
55.077983 -39.685886 1538.641150 140 145 156
23.697928 94.586402 1474.449688 4 5 7
63.282363 -17.891923 1518.059496 153 166 177
49.166320 39.534371 1490.756766 196 210 214
59.587175 5.601213 1503.335268 192 207 216
52.595614 34.667025 1490.600709 223 244 249
54.413663 29.397996 1492.373918 168 179 183
52.718370 70.226376 1469.057058 208 224 228
56.430705 59.531577 1469.372566 6 8 10
98.067970 -50.946432 1513.404579 209 233 248
100.036457 3.219814 1472.223154 208 223 232
-25.633003 -1.417177 1624.552997 118 133 142
-17.397934 -33.466034 1629.549526 77 83 91
-21.133923 -44.215151 1611.216054 55 62 70
8.687408 -67.408900 1607.709338 129 136 144
-36.227339 42.705238 1548.123956 129 141 146
-39.742696 52.106146 1542.298475 119 131 136
16.071579 -70.669905 1599.172356 181 197 210
2.439683 -19.110038 1570.691485 71 80 92
-1.829553 -3.255893 1567.148603 189 200 209
13.563780 -48.422851 1581.031500 210 219 234
36.852877 -52.904920 1563.751020 214 228 242
22.062535 -55.395952 1527.790990 0 2 6
25.598479 -59.361025 1533.830897 0 2 6
-1.178289 94.729122 1496.871683 212 232 235
28.358066 -62.380642 1538.374871 0 2 6
32.727447 15.013859 1546.682835 154 164 169
50.079650 -49.674246 1549.291831 129 135 145
11.537194 87.119733 1489.129643 218 233 235
37.534379 38.000088 1531.244748 103 115 113
22.630096 79.295548 1481.852372 120 135 137
59.651499 -26.570163 1524.468075 105 114 122
42.642502 51.021425 1488.243262 234 254 255
46.031929 47.209455 1486.854307 112 122 127
46.342918 58.593214 1484.813291 139 150 153
74.808750 -47.892222 1528.447417 197 208 222
52.571026 33.661378 1492.059335 223 242 246
67.802366 -1.659956 1503.788665 141 152 156
93.490604 -33.951965 1505.391982 197 247 255
77.313412 30.660678 1469.433380 193 220 230
79.819050 35.766241 1470.806190 0 0 3
84.858534 23.923439 1471.423087 0 1 3
-41.173940 -4.178965 1626.488231 9 6 9
-46.416394 18.820823 1614.966976 59 65 66
-46.485918 23.421205 1614.417562 61 69 71
-25.543888 -12.604621 1634.347878 35 50 59
-43.342008 37.760393 1608.442528 111 125 130
-24.990793 -0.423098 1634.968445 177 190 199
-18.980221 -9.765793 1633.850511 184 193 198
-37.574127 8.900487 1587.123827 198 211 220
-37.144079 8.716488 1577.205689 105 116 126
-33.736402 6.250828 1573.324883 82 95 105
-30.296523 16.489302 1569.794242 205 218 227
-0.147044 -62.495881 1611.128158 132 138 150
-38.043440 37.684741 1546.615603 218 234 240
-32.645330 29.124861 1549.248430 74 92 98
-34.671087 30.263262 1545.655738 74 92 98
8.035534 -65.984974 1606.126805 130 133 146
-4.631403 -0.224240 1563.774962 192 200 211
-31.775289 110.948066 1516.637937 160 173 173
-2.527129 -8.560258 1562.017272 71 80 92
11.537674 -47.606945 1578.713077 214 224 238
20.631711 -71.723602 1589.792355 196 206 221
-19.112022 78.224599 1516.676009 173 193 194
7.998884 -11.861754 1562.511596 136 151 162
10.577753 -2.006190 1565.839779 110 115 126
24.057807 -72.732161 1579.568823 3 4 8
-21.607182 113.571465 1495.635974 5 6 6
8.361921 31.278981 1537.498321 71 83 87
13.354597 28.776139 1544.888550 71 83 87
20.291067 16.191051 1553.606176 94 106 111
9.803778 41.828511 1530.548761 156 169 176
-2.528714 76.816120 1504.891243 102 116 116
14.117351 50.175377 1534.446308 93 105 110
-3.849631 104.089621 1497.930364 198 222 225
22.220485 43.303369 1534.338542 173 188 192
29.789589 28.664808 1542.049734 102 112 115
37.024075 -51.134491 1551.674196 142 152 170
6.473853 100.938656 1495.058169 93 118 118
6.473853 100.938656 1495.058169 93 118 118
6.408179 101.035725 1494.749247 93 118 118
6.408179 101.035725 1494.749247 93 118 118
15.730423 78.438769 1490.046124 73 89 89
17.002305 92.152959 1490.926319 207 236 236
59.745346 -70.218064 1548.998050 4 3 8
56.805904 -68.809430 1543.044485 4 3 8
27.935371 70.637551 1486.338922 179 199 198
24.137749 93.434395 1477.207138 4 5 5
54.983061 -34.408713 1535.411805 195 217 236
32.355212 63.974254 1489.135532 165 181 181
34.730972 69.743920 1486.357803 117 139 140
67.445271 -63.478667 1538.480221 193 198 210
53.670229 32.785685 1493.712873 224 246 249
68.457838 -10.383650 1511.819114 130 141 146
54.614652 55.097277 1473.008222 114 134 140
82.536384 -41.672328 1517.548552 117 127 137
87.391429 -32.644503 1515.054636 222 248 255
97.566438 -37.548029 1503.288931 0 1 6
-49.404077 3.031767 1612.717263 65 70 75
-43.868008 25.552294 1617.050625 66 78 83
-42.708843 24.869732 1615.578510 97 105 109
-27.644030 -11.615406 1635.352387 107 113 119
-31.909582 -21.875885 1619.123844 6 9 16
-31.909582 -21.875885 1619.123844 6 9 16
-21.849693 -20.242585 1625.457323 58 65 74
-8.850444 -26.625364 1628.151144 191 199 208
-11.621573 -41.604509 1604.382993 94 104 118
-61.667730 120.885680 1515.501033 4 10 12
-28.768937 7.717942 1569.891997 213 226 233
-34.221245 -2.423781 1560.006561 86 96 106
-0.584252 -38.822164 1607.859374 189 198 213
-29.322333 14.784302 1554.054745 117 129 134
0.529477 -65.897560 1604.203964 190 203 220
-3.830088 -44.824042 1594.367538 90 95 105
5.868632 -71.069832 1604.357968 7 7 10
6.633607 -65.351505 1603.582256 128 135 146
12.674193 -72.903502 1597.611237 6 7 11
0.522565 -16.772328 1564.961907 81 91 101
10.205860 -47.016130 1576.495498 212 223 237
-20.950495 79.411964 1513.221537 172 191 195
7.226964 -5.088972 1563.831220 102 110 118
-18.776172 111.615127 1500.928444 6 5 7
10.385991 34.346115 1540.400415 75 84 90
8.043849 40.086106 1528.857601 158 174 181
37.110574 -71.504410 1564.271883 10 11 16
7.242324 107.167201 1488.926093 91 115 111
17.758570 91.618023 1492.435798 209 235 238
48.148085 -74.466394 1554.572625 183 190 202
48.148085 -74.466394 1554.572625 183 190 202
47.244189 -47.929265 1544.109229 121 129 141
21.563161 81.536249 1481.014541 117 139 142
51.048447 -62.008857 1539.591099 190 226 250
35.450584 63.004688 1488.599417 99 120 119
36.388255 66.314293 1488.908155 165 183 183
38.090824 55.918752 1492.035590 120 136 135
59.283156 -19.691993 1520.042414 228 246 255
65.781291 -62.649147 1535.000862 187 193 206
48.251843 41.177162 1492.651459 122 135 135
60.114270 -24.712134 1519.704276 111 119 131
49.691127 51.734481 1486.686788 227 255 255
60.471686 10.010422 1503.020861 127 141 147
52.631327 68.234309 1483.747497 139 156 158
58.903109 20.235645 1497.033774 185 201 208
60.327337 15.131361 1496.046600 93 107 113
66.723243 -3.556153 1509.141705 154 166 173
51.800568 70.825810 1467.530234 184 211 212
52.606425 70.490721 1468.862072 184 211 212
77.835047 30.370086 1470.198631 193 218 222
102.662436 -9.349911 1483.505015 0 2 4
102.192609 0.483384 1477.138059 163 169 170
-49.669881 13.013762 1626.346530 0 1 6
-49.456704 3.007956 1613.060527 62 65 67
-28.654823 33.510362 1635.900208 116 126 131
-37.311161 -4.178464 1627.081066 1 9 17
-40.977724 19.494828 1619.196774 11 18 22
-29.387392 15.791522 1627.833827 145 158 166
-22.398916 -1.536991 1639.105577 175 187 194
-28.303988 -22.956744 1624.869631 12 10 18
-15.326674 -18.456070 1642.622159 203 212 227
-38.098866 10.012316 1581.780067 204 213 221
-33.884617 -0.605586 1580.057315 96 105 112
-8.507191 -64.257529 1621.936080 9 8 12
-13.842123 -42.021452 1605.508216 124 130 140
-57.901442 124.341041 1514.394110 92 110 111
-4.553130 -59.404198 1616.508993 195 206 222
-44.878479 55.566822 1533.366929 113 129 136
-38.147544 33.681420 1541.550819 77 90 97
-4.720218 -44.567534 1592.804707 89 96 107
0.187706 -58.426685 1600.533091 107 114 124
-17.709405 3.379487 1561.127827 183 193 205
-30.068657 108.320003 1518.003755 106 127 132
-25.287883 76.497029 1513.706987 67 83 87
-26.976418 60.828350 1509.004436 98 116 117
-19.674952 78.914778 1515.057968 171 189 191
8.897876 -46.656647 1574.362338 213 221 236
-18.417476 111.434170 1501.602277 7 8 6
-14.530963 100.329693 1504.892786 96 118 121
7.727070 110.126526 1497.762520 3 7 9
38.718390 -71.847570 1566.264021 11 11 16
33.861895 -48.660712 1549.130620 207 232 251
19.693871 100.106946 1494.799164 97 116 117
38.647159 -48.118640 1541.408383 132 140 154
45.211713 -55.730321 1546.735708 179 186 198
42.363465 70.738197 1474.580771 135 156 155
40.907481 91.409329 1461.791620 93 111 111
63.590295 -4.828828 1510.700000 113 128 135
80.536046 -25.541331 1519.693985 160 165 173
-13.546904 -12.115583 1645.920356 146 159 172
-13.337602 -7.440135 1643.648170 113 120 130
-18.450754 -25.941025 1630.141450 116 124 135
-12.690351 -44.861054 1630.957315 202 209 224
-16.157779 -52.769476 1625.270099 7 11 19
-44.379621 0.541016 1562.820751 98 106 116
-82.237658 83.393958 1482.337579 173 188 192
-42.848329 27.580978 1549.707206 122 133 140
-16.707248 -40.219396 1599.827758 104 114 131
-31.297386 19.296416 1562.900975 132 141 148
-39.816170 44.559280 1544.606278 137 152 156
-32.685854 19.090825 1554.012132 170 179 187
-38.241277 47.665920 1539.794921 201 213 218
-38.241277 47.665920 1539.794921 201 213 218
-9.226776 -36.925938 1596.047056 192 198 214
-35.114118 116.365282 1520.286492 147 169 171
-61.135149 76.590246 1477.531821 6 5 7
-29.783439 -10.885284 1539.971844 79 91 103
-11.670319 -10.171314 1548.723116 74 86 98
-1.371598 8.414087 1559.047286 101 109 114
-20.024548 111.964864 1498.790569 5 7 9
9.115299 -46.434255 1575.155025 214 223 235
16.162994 -66.236753 1586.474287 127 132 143
0.535379 102.176709 1506.284256 198 223 223
25.903981 41.735049 1541.706922 173 188 192
32.176954 -71.482020 1569.607389 174 183 196
25.288190 -47.165190 1541.530965 221 233 247
32.801700 -71.330645 1555.001346 11 10 14
21.344228 88.751959 1482.696532 203 238 239
20.988119 75.198075 1484.580311 105 120 122
24.676742 67.954158 1487.578421 105 120 118
37.217588 62.424785 1491.656268 99 117 118
39.727130 58.994420 1492.703094 173 193 194
50.985787 -35.028794 1528.921179 120 127 138
39.409433 80.195321 1482.394578 161 182 181
49.920524 -66.797983 1532.395769 5 9 11
44.398588 54.051348 1494.243142 132 151 155
40.775352 91.437747 1461.743125 96 114 112
57.534879 -19.382932 1516.131818 234 250 255
58.824370 16.395197 1495.749460 86 102 109
53.153871 56.097524 1467.833797 111 137 137
73.716030 -59.644332 1522.592453 6 5 7
73.716030 -59.644332 1522.592453 6 5 7
80.273592 26.544832 1466.579538 0 9 13
95.217407 -30.063379 1507.190359 228 243 252
105.700459 -10.092015 1489.017298 2 2 2
-30.231926 34.466842 1631.813154 115 124 132
-27.805185 34.429691 1635.233132 115 124 132
-5.136413 -7.861061 1655.732304 111 121 129
-18.385736 37.455227 1610.091837 188 202 209
-1.974175 -40.431709 1653.916507 101 105 113
-42.410691 7.466577 1569.636093 107 120 129
-16.564506 -16.364843 1611.345661 118 126 136
-63.742162 99.377756 1507.800643 9 9 11
-41.650172 32.210280 1555.009438 190 196 204
-38.913692 47.795802 1539.486440 200 212 217
-11.048902 -36.808293 1594.014359 190 199 213
-60.587293 76.584226 1479.822093 8 7 10
-35.631168 68.776652 1498.149076 91 106 108
-39.339020 56.058447 1492.398832 103 119 125
-8.493580 -6.414858 1552.429737 72 81 93
-8.887515 -6.046021 1551.512420 72 81 93
-11.579094 73.324787 1524.879687 67 83 87
-17.779647 111.507552 1502.450829 7 6 9
0.069660 -2.516760 1558.191400 203 214 223
10.162501 -18.167034 1574.438696 116 126 136
14.123744 -9.848275 1565.271263 150 157 163
11.356640 30.001809 1544.144385 74 84 87
5.566907 101.197710 1514.903070 198 219 223
12.507438 96.069866 1511.109584 107 133 138
24.639212 -71.667025 1540.618148 10 10 15
22.289352 74.973312 1486.622360 103 119 121
37.676149 -47.473768 1527.888017 120 130 141
38.219142 62.248829 1492.900500 103 120 122
35.295674 -67.918003 1506.412333 5 6 11
41.226069 91.334493 1461.996431 96 113 114
55.115307 -15.879930 1516.552318 224 232 242
54.690813 35.465827 1495.601361 118 135 137
56.224446 79.825930 1481.934558 104 135 140
53.969528 -61.834084 1513.101770 180 186 198
53.969528 -61.834084 1513.101770 180 186 198
54.598193 69.856392 1471.240287 172 195 195
65.664103 -3.672726 1506.224331 156 166 170
62.203072 20.739938 1489.371840 194 212 214
103.163772 -10.297362 1493.911641 114 139 147
109.008593 -18.590080 1499.355942 123 147 159
104.380810 -10.121745 1485.012292 3 2 3
-18.985875 37.471777 1653.456053 90 106 112
-42.255851 2.860061 1625.690524 58 60 64
-32.677905 -31.621621 1627.901178 1 4 8
-12.677399 10.670999 1630.283856 197 205 215
-12.495469 -21.098683 1638.771974 77 83 91
-6.782107 -26.796779 1648.115149 109 121 134
-7.729067 -44.754457 1639.480189 198 206 220
-37.712496 28.425223 1569.545347 194 202 207
-37.777541 18.151394 1570.542942 206 217 224
-38.189477 15.750952 1567.741716 130 138 148
-37.266350 47.892669 1542.949039 208 220 225
-7.409945 -50.932455 1611.088318 121 129 139
-78.605548 77.961716 1452.944448 12 10 15
-14.649848 -36.881984 1589.485683 197 203 218
-76.727060 56.478079 1457.734867 151 168 172
-15.228281 -42.305403 1586.881707 195 209 224
-17.868683 -42.758730 1582.748180 195 209 224
-44.860269 20.852815 1508.367120 141 154 161
-14.787572 111.159295 1507.076699 3 5 5
15.846159 100.186736 1532.021183 201 223 226
6.548217 16.908571 1534.588862 93 104 111
24.840300 97.508477 1524.571567 110 131 130
6.898710 -54.871529 1531.469447 132 141 153
11.371619 -49.757281 1527.399063 109 111 120
26.036689 74.659136 1492.577389 100 119 118
21.614152 -44.090517 1510.908575 230 243 255
19.553122 -48.980683 1508.912981 130 140 154
44.159844 61.899885 1502.908942 100 115 117
47.751656 90.668210 1473.004570 96 115 112
55.629603 32.295788 1495.927296 225 246 249
55.629603 32.295788 1495.927296 225 246 249
50.818215 -19.189966 1503.511045 233 252 255
51.261047 55.374751 1471.508840 97 120 123
59.958469 9.850677 1500.093870 128 141 146
60.001982 -4.682811 1503.102666 115 129 137
45.753420 -62.868267 1498.270417 181 187 199
48.708968 -62.738265 1474.969589 4 6 9
74.378830 23.205443 1455.104351 119 142 144
84.744809 -37.459927 1481.553147 4 3 6
98.821525 -4.812791 1478.012518 167 195 203
102.243105 -10.447228 1479.461101 2 2 2
100.157005 -10.895477 1474.695832 2 2 2
100.157005 -10.895477 1474.695832 2 2 2
-16.380363 18.920020 1658.173693 22 28 34
-39.479520 3.411267 1630.421609 51 57 60
4.316756 52.006841 1662.886441 101 114 116
1.958850 -9.951637 1677.446721 180 198 213
-23.909585 -24.969822 1632.507972 10 13 22
-7.882350 -4.177410 1646.935328 178 183 193
-12.725732 -42.038623 1642.757609 102 115 125
-13.938949 -46.413273 1634.718853 195 206 219
-33.057173 57.440735 1556.372351 119 129 134
-34.985854 56.360610 1546.606268 122 135 137
-27.535594 48.747703 1559.069595 204 217 220
-32.625333 36.385732 1555.871197 92 98 106
4.219813 111.050576 1581.738729 114 129 131
5.775048 107.833925 1580.890397 161 179 176
-22.035190 -37.699912 1579.219188 196 202 217
-31.656301 -69.923034 1568.070004 132 168 184
-13.350857 0.897607 1554.626279 185 191 201
-11.096785 -1.530285 1553.144291 209 217 227
5.756584 3.258912 1570.961721 120 126 134
-18.600289 -70.495938 1556.940504 171 178 189
-14.298743 -45.350405 1539.491546 206 212 227
7.491490 -2.020538 1555.653794 100 107 115
12.239670 -23.433787 1567.466057 111 117 125
-10.348612 -50.773392 1534.307205 91 93 103
-12.936737 -77.020807 1521.356069 6 8 10
46.167724 101.793294 1535.235886 118 136 136
52.037351 10.093481 1577.984165 153 166 168
0.543595 -75.452793 1518.769121 165 172 183
0.543595 -75.452793 1518.769121 165 172 183
-0.162809 -68.667778 1498.903999 205 215 229
5.349432 -74.026206 1508.496293 6 8 13
5.349432 -74.026206 1508.496293 6 8 13
4.387793 -52.753940 1497.279927 140 154 169
9.932349 -53.775034 1497.399851 135 143 155
52.399637 68.149622 1516.278025 119 137 139
49.044464 65.216968 1509.617648 172 191 190
49.099450 61.899124 1510.991941 97 115 115
55.345640 58.741520 1518.918125 174 191 193
57.363897 90.128010 1490.460628 94 113 111
54.763016 90.408251 1484.709981 94 114 111
22.817080 -61.772005 1493.023153 204 214 225
59.821708 45.313327 1507.049747 123 145 146
59.926060 50.720200 1501.128003 217 247 246
69.455237 67.975408 1509.290266 130 149 148
58.514434 32.315894 1500.348263 222 241 245
65.476087 81.592438 1483.705119 1 1 3
39.148373 -25.754112 1481.496182 116 127 135
62.715358 14.422843 1498.069412 124 140 142
31.680120 -65.458696 1473.963405 182 189 198
69.606514 24.946903 1495.219763 187 202 206
77.473081 -39.725580 1465.589488 4 3 7
93.162569 -6.035612 1466.126582 167 197 205
94.370471 -0.154624 1459.022580 135 147 147
95.963511 -11.684611 1466.046730 2 2 2
-41.943674 3.437074 1627.963989 45 48 57
-30.313043 8.628102 1639.832736 7 14 22
-51.698989 -4.380873 1612.614852 52 65 76
-45.340689 -0.071898 1619.851194 10 16 23
2.737706 116.140577 1606.942496 131 147 147
-31.278635 12.481860 1597.628575 208 215 223
-19.813202 50.161924 1571.866765 203 213 218
16.894048 108.612108 1598.628222 158 177 176
-30.073018 9.963801 1570.333876 209 222 231
-27.742431 38.987005 1549.732092 98 111 118
11.911537 90.498029 1584.129457 201 221 222
-36.980886 1.130132 1551.855230 99 111 122
13.831420 111.570536 1552.660881 3 3 5
15.026846 78.544064 1566.713580 168 191 192
26.165674 99.048785 1573.736349 104 122 121
26.568823 99.077844 1574.265503 104 122 121
-11.358009 1.188595 1557.522420 184 190 198
1.871301 -2.465530 1559.424001 183 194 204
0.644188 -2.783619 1557.627827 183 194 204
21.555614 30.405250 1560.522368 76 86 91
31.443483 34.918059 1567.989419 179 191 196
48.033033 104.205749 1556.054984 99 117 118
18.093249 -19.812901 1560.594690 142 146 154
50.882301 88.153151 1541.994789 220 245 245
55.940032 58.645225 1519.444263 177 196 193
58.196377 49.608367 1515.728068 231 254 254
-0.854883 -77.995084 1474.402990 157 163 173
66.717315 90.444755 1505.777889 95 114 112
66.742929 90.821131 1504.397978 97 116 113
72.750939 72.808988 1517.283488 167 189 189
30.320770 -25.896889 1492.807147 232 240 250
26.454385 -44.423688 1483.660465 132 139 145
61.966652 60.762054 1489.597756 198 224 226
17.660873 -70.477194 1478.831994 5 8 10
55.767727 -0.065150 1489.976853 113 130 137
25.183562 -66.938639 1463.375515 187 193 203
84.324940 -32.353521 1457.378455 171 197 207
91.247475 -13.647668 1455.101764 2 2 4
-26.293953 8.212434 1636.645359 144 161 174
-28.675302 -13.827163 1634.823952 167 173 187
12.140910 135.055947 1604.016543 3 6 8
-22.053561 33.148855 1613.144571 190 198 208
-30.058228 -10.524746 1615.659962 176 183 196
-28.840332 21.120871 1587.582369 211 219 229
16.482750 99.186031 1606.713775 165 174 175
-28.191217 -18.877035 1596.181396 119 127 137
-36.175856 -41.769999 1576.902443 122 131 144
-42.226032 -63.592444 1573.088463 159 166 174
-37.751275 -60.630724 1554.457739 171 180 193
-37.751275 -60.630724 1554.457739 171 180 193
34.500012 91.208344 1570.025843 107 122 124
52.919475 113.110975 1573.814384 2 2 4
50.536637 100.450597 1569.895814 96 116 117
6.181250 -11.835015 1553.961557 155 161 169
48.686440 79.060168 1538.240785 98 116 116
59.235932 97.180219 1540.393605 5 5 5
-14.989908 -76.878978 1519.281452 5 5 7
54.441398 35.791170 1535.512835 105 119 124
68.190569 69.405109 1521.083385 173 189 189
75.087436 91.666683 1516.343310 100 120 119
63.185565 48.409725 1515.255187 125 146 152
78.510381 68.111874 1521.277805 133 152 152
1.870952 -76.441452 1479.650548 161 166 174
81.336107 82.901689 1509.796509 2 3 3
84.678793 84.016407 1513.906944 2 3 3
62.466260 35.160371 1505.692275 119 136 140
73.004153 56.407406 1506.822612 108 130 135
41.126834 -17.811655 1486.548774 225 243 251
41.126834 -17.811655 1486.548774 225 243 251
41.044977 -18.388171 1485.653200 225 243 251
40.453992 -18.859038 1484.624518 225 243 251
40.453992 -18.859038 1484.624518 225 243 251
14.398063 -72.570590 1474.102231 7 7 10
39.110600 -25.734509 1481.790324 120 135 142
61.141223 5.282455 1490.008479 177 193 199
24.318508 -67.129525 1462.438009 189 192 201
39.611970 -55.498089 1464.957564 209 224 231
128.938012 66.497033 1560.786002 172 198 196
86.617308 41.377832 1468.815481 6 3 6
70.218313 -40.700253 1453.008992 1 5 9
83.384071 -29.681333 1461.263911 119 127 132
-16.415875 68.239508 1591.098378 188 200 205
-36.443164 -28.518872 1618.373196 149 160 172
-33.196872 -26.695171 1621.391454 149 160 172
-31.868282 -25.065143 1618.579313 186 198 211
18.701250 108.645488 1606.862939 114 130 137
31.596709 104.950038 1624.586419 145 159 166
-27.844706 22.196787 1589.672843 212 220 230
-37.203038 -25.117882 1601.913294 198 205 218
-19.584473 44.025926 1577.829657 196 205 212
-27.067442 15.352575 1576.720647 132 142 154
-31.594529 5.462125 1563.647242 105 117 124
-46.406411 -61.865359 1580.574776 2 6 9
-48.177919 -62.954432 1578.819751 2 6 9
28.101073 102.706305 1576.472477 81 93 98
32.285650 100.047819 1583.708684 105 122 126
20.800172 79.674853 1574.479658 171 186 188
20.800172 79.674853 1574.479658 171 186 188
-34.624308 -41.746739 1561.653858 201 208 219
-46.124013 -73.281385 1559.988652 3 4 5
50.184629 107.625327 1580.714688 100 122 130
-37.857617 -60.696165 1554.325272 166 178 190
7.371621 -12.279239 1553.861961 155 161 169
-1.912740 -28.214065 1543.446808 111 117 125
-29.836499 -75.104739 1530.179976 183 192 202
-28.083309 -74.059596 1531.935725 183 192 202
56.783394 71.292387 1533.998589 190 211 210
-1.506221 -51.870612 1506.220575 123 136 146
78.323407 92.645253 1520.159657 99 119 118
-1.897080 -73.890980 1496.141515 6 7 14
69.597759 55.200424 1518.202492 131 148 150
65.077504 45.220208 1513.588455 120 137 141
15.493860 -49.187196 1491.642230 128 135 143
0.056741 -76.794717 1478.234067 161 167 174
63.231678 35.424666 1506.583024 120 136 145
41.105141 -18.559071 1485.429876 229 247 253
61.447347 13.484550 1494.229371 126 140 144
55.932894 -0.528437 1489.130869 113 136 142
25.060269 -66.538475 1463.676527 182 188 192
82.517043 49.377987 1477.659581 119 139 138
40.230558 -63.797535 1461.573778 3 4 7
81.383270 25.573054 1468.863994 117 137 139
62.121939 -33.655126 1468.354272 192 213 220
86.990865 9.928611 1464.383181 135 154 153
86.966817 -27.162648 1457.865732 112 120 121
-18.082510 46.650529 1634.139046 104 110 118
-15.589506 77.513144 1595.750634 181 192 201
-35.937521 -19.068739 1625.176495 179 187 198
-34.467478 -25.864933 1626.865228 2 5 8
17.492319 110.451183 1609.114001 114 129 131
-36.682987 -29.282519 1617.349318 153 163 173
15.204951 101.124762 1602.627240 195 209 216
-37.269033 -20.241693 1608.392116 119 129 140
-38.271699 7.818596 1583.445170 108 118 128
-39.783263 -30.433306 1599.887806 107 118 127
-25.745784 22.575875 1578.033799 124 134 144
-25.401172 22.775094 1578.299689 124 134 144
-33.882766 12.211343 1567.789973 187 197 207
-38.850395 -48.095424 1571.945985 125 132 145
35.819281 92.427839 1573.417289 110 126 128
33.770701 91.075193 1571.462684 110 126 128
-36.190116 -43.218317 1559.368679 203 208 219
-46.112093 -73.984492 1558.413774 2 2 7
-46.390336 -71.188411 1551.345197 146 158 170
-42.400435 -68.456182 1554.623833 146 158 170
-38.465376 -61.010854 1553.780665 169 180 191
-28.578177 -78.914895 1532.362613 3 3 7
73.037725 -0.766471 1640.976958 146 158 170
78.564781 92.662132 1520.278514 107 130 127
79.691636 68.597930 1521.194309 136 152 154
64.353600 44.642955 1512.504068 124 139 143
72.830883 56.448314 1513.707742 211 237 239
10.573614 -58.112501 1489.298732 190 201 208
76.726626 65.934371 1506.153773 182 206 207
41.966907 -18.061806 1486.390156 230 247 253
59.831131 5.721589 1495.509523 193 214 219
18.353039 -69.434838 1480.666103 1 5 7
51.213837 -13.097917 1484.278572 121 133 136
84.018306 50.525729 1479.920636 122 137 139
43.578450 -41.337304 1475.339226 133 144 149
53.493355 -33.323572 1475.752382 191 205 210
82.051846 29.245611 1471.440270 168 189 191
83.248848 29.957879 1472.524280 168 189 191
60.907823 -37.792650 1453.583306 168 181 182
88.299988 10.592750 1465.807180 136 153 152
74.081179 -41.594583 1453.533205 0 3 10
62.694673 -59.386589 1446.911733 145 156 159
63.009682 -59.443507 1446.885481 145 156 159
92.860138 -3.166761 1449.347281 144 167 169
-3.578737 117.623617 1620.087613 123 135 140
-9.361944 110.845583 1615.846305 123 133 136
-39.159680 14.783059 1630.685857 84 104 115
21.086610 114.274302 1602.495136 120 130 135
-19.130823 51.361801 1586.120464 141 147 155
-19.130823 51.361801 1586.120464 141 147 155
-21.664365 41.620632 1583.910891 116 124 132
-13.876997 60.317975 1577.843416 114 125 132
-26.496623 18.721363 1576.724877 196 207 216
9.030954 76.771796 1579.700988 112 125 132
-48.269275 -58.633998 1588.828132 107 115 123
-48.269275 -58.633998 1588.828132 107 115 123
-38.586724 -35.370293 1580.796272 199 209 218
22.165493 80.604289 1575.880490 178 189 192
48.862308 108.889407 1572.077185 52 62 65
-36.316861 -43.929161 1558.568932 195 202 214
22.397374 42.227366 1578.426977 110 122 134
2.968344 -3.386941 1558.550611 146 158 163
2.968344 -3.386941 1558.550611 146 158 163
-34.398789 -73.928199 1548.817207 0 3 4
-34.398789 -73.928199 1548.817207 0 3 4
63.615229 97.359772 1561.103250 100 118 120
43.944327 85.272882 1529.024373 67 82 79
37.291532 36.106967 1552.800237 186 199 201
58.032885 65.372797 1529.907694 173 190 187
-15.875952 -75.700560 1519.539764 2 1 6
-15.875952 -75.700560 1519.539764 2 1 6
-9.772970 -77.562739 1503.702157 158 171 178
63.785724 43.889127 1511.497257 121 136 138
-2.121543 -74.377862 1495.859393 1 1 8
161.693131 110.539543 1557.147073 2 1 2
4.338346 -72.459770 1484.129947 164 171 177
60.846666 21.845690 1499.891475 210 229 233
19.174224 -67.815596 1482.583874 1 4 9
53.821105 -11.045963 1486.430943 126 136 141
83.391150 50.459202 1479.717960 120 139 136
79.550287 24.950314 1458.127269 2 1 2
87.917002 10.361054 1465.460940 136 152 152
73.407786 -34.416393 1459.883153 169 187 189
75.438910 -43.434707 1451.914590 0 0 9
-47.914782 82.724804 1638.123858 9 5 10
6.495129 131.672185 1613.142734 105 121 125
-35.669763 25.978936 1631.846927 117 126 132
19.646991 106.876820 1603.548020 132 143 151
-42.620350 -26.193839 1619.514226 185 195 203
-39.707575 -23.775110 1620.849624 185 195 203
-20.279393 55.094184 1588.594432 205 212 218
-20.279393 55.094184 1588.594432 205 212 218
-20.342972 51.208285 1585.978822 141 147 155
-34.809708 19.603706 1588.700877 214 220 230
-41.944130 -39.134692 1604.996676 1 4 8
-40.241992 -27.832133 1599.496308 187 199 211
-35.344345 -23.619797 1601.934170 187 199 211
-29.032691 15.024016 1576.297657 138 153 162
-29.032691 15.024016 1576.297657 138 153 162
-34.425594 79.512425 1515.438481 0 0 0
-34.425594 79.512425 1515.438481 0 0 0
-45.714668 -57.424737 1589.781117 111 117 125
-39.876869 -36.137530 1580.142868 195 204 211
40.503845 100.547457 1582.214964 182 192 195
-35.984093 -40.252167 1579.538820 116 126 138
-46.052070 -64.696313 1577.919679 2 6 7
47.681714 104.733739 1577.779815 119 132 139
24.769562 74.400323 1568.043964 100 108 111
-45.900883 -65.914650 1569.541894 148 153 159
47.626369 100.492893 1572.520839 204 223 227
-37.079489 -45.059794 1557.545886 185 199 205
-41.938094 -55.257002 1556.192413 119 130 140
-32.475490 -48.967747 1551.503062 116 124 132
32.590372 43.074579 1561.824033 96 103 108
49.909398 9.245550 1597.218886 171 180 192
61.129269 73.083338 1533.092669 160 180 181
-14.962372 -73.967980 1521.117390 0 0 3
-17.136056 -76.435177 1519.507613 0 0 3
81.459078 78.916725 1515.182962 124 140 140
27.492468 -40.778356 1491.561435 128 138 143
83.773210 50.954833 1480.242505 121 138 135
68.523013 -29.361347 1468.060642 180 196 198
88.793003 11.265259 1466.400724 138 151 149
90.725668 -13.233557 1453.184768 0 2 4
87.698755 -26.855185 1457.848183 112 120 118
77.470550 -43.846113 1451.681074 0 2 11
85.147580 -32.568584 1451.305225 131 158 162
-35.040369 117.092652 1584.203440 73 81 83
-27.515802 113.670638 1587.809327 34 41 47
-52.417654 95.934331 1540.582103 89 100 102
-34.692051 4.422820 1622.750096 121 128 141
18.550150 109.638347 1605.191161 149 158 166
-21.597702 54.259830 1588.102328 204 211 217
-20.944573 51.317547 1586.151831 148 152 160
-24.212635 44.670581 1586.716276 218 225 231
-38.314807 -32.202824 1615.016771 167 175 185
-40.013907 76.596820 1525.232750 0 0 0
-39.398133 -26.458677 1597.839824 177 185 195
-29.785180 14.695759 1576.145839 143 153 163
-29.707039 16.124024 1572.589882 195 208 218
-30.877217 71.006573 1528.017856 94 105 105
31.810824 91.106786 1580.716969 167 175 178
-43.390330 -55.845144 1590.592578 105 117 124
63.685268 96.673917 1560.477942 105 115 120
63.378669 91.458339 1554.882253 179 194 198
63.378669 91.458339 1554.882253 179 194 198
60.801981 93.168376 1546.516667 122 134 139
55.246773 85.229131 1541.013601 204 223 227
-28.363304 -78.980421 1532.285966 0 0 4
59.003209 61.391203 1485.714959 0 0 0
14.775465 -42.679037 1491.806801 230 244 244
46.078943 -2.948512 1490.694414 185 199 204
51.807851 -7.728268 1488.760996 110 128 135
84.062520 47.471729 1489.896140 99 116 116
67.546118 5.565272 1490.495587 120 132 132
88.146641 -8.382611 1463.508727 95 108 110
91.284753 -12.415956 1453.786690 0 2 10
-34.428653 120.693311 1586.404440 69 78 83
3.046952 127.909232 1601.174879 84 87 93
17.314403 112.060383 1614.896253 165 176 185
-67.181325 56.299150 1523.047363 90 101 102
-74.048169 49.319165 1518.323146 152 168 168
-66.577315 50.007183 1514.059061 0 0 2
-62.444199 55.405246 1513.904672 0 0 2
-44.422587 41.227046 1515.078915 79 92 94
52.489009 32.816746 1482.935294 90 99 99
51.689911 30.816066 1482.715147 90 99 99
62.646950 4.335230 1500.942010 0 0 0
89.608415 40.075167 1474.420275 85 90 89
261.753693 401.153865 1509.218469 102 113 113
