ply
            format ascii 1.0
            element vertex 1278
            property float x
            property float y
            property float z
            property uchar blue
            property uchar green
            property uchar red
            end_header
70.343443 82.954677 1512.474908 0 1 6
70.953681 -55.837832 1493.031706 21 63 94
69.129677 -71.155576 1399.372073 2 14 25
75.306296 -51.632142 1503.616971 83 130 161
76.424931 6.938931 1493.406896 83 126 153
79.215410 115.668973 1504.665836 98 137 167
79.334461 93.086028 1502.998930 74 105 135
81.865202 113.169675 1501.461296 41 71 96
80.263110 -79.898790 1400.736048 3 20 32
91.362007 88.213470 1494.364752 1 24 40
83.357247 -57.288907 1392.009094 102 139 158
83.804022 -53.488924 1392.653684 96 137 159
91.443387 95.213864 1491.005204 20 52 76
93.567459 121.914278 1508.124755 14 35 54
91.841885 -45.067472 1504.426601 88 117 137
85.609310 -74.409885 1395.754736 7 35 49
85.834217 -80.270416 1399.967271 117 143 157
86.230355 -55.083472 1387.652337 31 67 84
92.438311 -45.329054 1487.208391 1 23 41
91.176373 -84.230971 1399.098170 0 2 11
71.441972 121.315122 1024.918663 103 150 179
14.779955 -57.789281 1679.232350 3 5 12
96.979966 -51.370506 1387.227597 50 85 104
99.104687 -47.245995 1391.630229 120 166 183
107.404754 69.457403 1489.788601 3 26 46
107.431862 62.580595 1488.884077 8 32 51
110.816263 73.308955 1488.779126 66 105 132
113.988027 98.650881 1511.841211 102 149 188
113.689561 89.052810 1487.219258 85 127 161
115.407442 96.824180 1492.348073 35 62 88
121.537236 -86.160531 1394.796792 75 98 116
121.537236 -86.160531 1394.796792 75 98 116
127.330076 -89.593828 1410.597610 1 13 28
133.839172 -46.679676 1474.299759 79 117 148
128.229084 -61.658565 1404.930558 81 120 146
136.300123 50.640709 1479.522157 85 130 159
136.605529 -48.905455 1468.668655 25 53 78
137.770111 3.099557 1475.832362 25 61 84
137.918129 -40.881068 1472.578028 41 76 102
140.058614 75.254340 1482.227541 100 134 160
147.018590 96.557721 1508.228376 0 4 15
152.895442 78.453317 1516.340390 2 3 8
153.801130 72.206270 1495.211863 95 125 148
143.622111 -82.861342 1399.870823 81 116 136
150.676575 -122.126732 1416.353991 0 0 2
160.225244 71.144332 1501.263662 23 53 81
159.001709 -5.455764 1470.245362 103 145 170
160.307872 -19.633590 1468.832564 32 59 84
161.705387 -31.599840 1466.843927 79 126 156
161.705387 -31.599840 1466.843927 79 126 156
166.435499 73.773713 1505.593474 110 138 166
156.702183 -90.459045 1399.497483 0 4 8
157.180655 -82.968170 1399.371779 67 113 133
159.347688 -49.869339 1404.484522 96 137 157
166.712803 -19.303480 1468.865246 29 63 87
171.302670 58.850724 1500.784522 113 155 187
159.654383 -60.978069 1399.006717 32 64 85
171.881746 10.270763 1469.890319 99 137 163
164.389560 -77.820745 1398.780486 22 58 79
164.389560 -77.820745 1398.780486 22 58 79
174.733775 27.375197 1470.068317 42 80 105
169.281127 -87.633214 1395.313647 71 108 125
175.052162 -55.633084 1395.159967 0 16 31
175.052162 -55.633084 1395.159967 0 16 31
177.021106 -60.868655 1389.585861 54 81 97
181.492572 -52.404780 1388.492017 98 148 169
184.354387 -97.575834 1398.264024 0 3 9
194.513156 -36.860429 1464.439668 38 71 98
208.952124 31.335092 1541.917259 1 2 9
219.660623 9.865948 1480.273444 87 138 168
219.660623 9.865948 1480.273444 87 138 168
215.637219 -68.356394 1411.401666 93 145 172
231.370535 19.073608 1473.080244 56 101 133
220.355680 -64.174304 1392.205836 57 98 121
236.182305 28.571781 1487.149426 3 6 12
238.197977 -133.387213 1445.191486 0 1 10
239.488775 -25.483410 1398.521811 1 2 5
247.625254 -83.464946 1426.689837 96 137 163
252.661042 -71.898838 1438.527946 88 131 155
252.850666 -102.417848 1426.814499 2 1 5
-157.219091 -10.589182 1432.900962 95 135 157
-159.645530 -79.530968 1434.517256 78 111 129
-153.960942 27.061734 1466.609169 88 121 147
-150.342392 60.092909 1466.467131 86 127 156
-150.226213 50.856464 1465.572761 42 70 98
-152.722384 6.008900 1469.143103 65 102 129
-143.045413 -9.239773 1426.718259 88 133 157
-150.867048 -118.184808 1433.689461 156 197 216
-142.202089 -101.790462 1428.430345 39 83 108
-135.997566 -61.366155 1428.937963 47 77 97
-134.563618 -80.315232 1428.187353 39 67 89
-124.861335 79.340358 1461.978770 107 150 180
-127.262333 -21.621134 1424.591049 41 74 94
-123.686512 131.603972 1510.994546 108 149 179
-122.774245 -6.887666 1460.198853 88 129 157
-118.134840 65.268563 1463.706057 42 71 103
-115.507555 85.923290 1506.518387 77 115 147
-111.290287 -31.554486 1430.277158 40 68 89
-111.313862 -32.814434 1432.992488 40 68 89
-103.576657 -14.157744 1431.884542 70 106 135
-100.893200 128.306632 1507.266073 107 138 169
-99.117699 62.309442 1460.091565 72 113 144
-101.117095 -55.455156 1428.355399 48 86 108
-97.393016 81.411566 1502.487375 81 116 143
-102.107837 -77.919009 1441.432736 161 202 222
-94.481599 79.653806 1494.246572 57 91 120
-97.474838 -45.174349 1441.708087 72 103 130
-93.813659 36.283295 1476.085888 74 113 147
-92.557069 81.090638 1502.000532 95 134 165
-94.941491 -43.877226 1448.223156 26 54 81
-88.454555 78.131898 1495.207716 125 165 194
-89.310389 -70.503079 1437.427164 73 107 131
-87.780725 -11.227247 1512.620522 72 118 149
-84.120364 -30.871607 1476.452731 58 92 123
-78.414764 100.116048 1514.057777 63 98 132
-81.907721 10.750643 1514.705477 54 89 120
-76.583573 81.516192 1530.513481 12 15 22
-82.102342 -41.260113 1536.994229 137 171 192
-71.238641 88.506528 1527.907040 81 121 153
-69.329065 102.472639 1515.521431 109 146 178
-69.329065 102.472639 1515.521431 109 146 178
-70.054708 13.248705 1513.701155 21 65 97
-65.348564 98.209687 1519.166328 76 113 149
-59.384739 -60.923647 1433.933730 67 101 120
-53.541821 105.320645 1514.658141 56 97 134
-54.476244 60.657298 1533.957833 0 2 6
-51.061307 39.176259 1534.062527 1 7 10
-46.492119 25.159626 1511.723067 57 94 132
-45.406057 22.616978 1509.436785 107 145 173
-37.692886 105.519969 1512.566156 53 89 124
-39.792978 34.547461 1522.284553 31 70 104
-41.090758 -49.390354 1422.004096 101 144 165
-41.090758 -49.390354 1422.004096 101 144 165
-39.651949 -50.722955 1513.048812 26 69 103
-31.548781 120.627027 1522.165733 57 96 129
-35.881769 16.579122 1508.937878 83 131 164
-31.121862 118.345991 1518.286935 106 145 179
-31.568320 89.214327 1520.297881 93 130 162
-27.897300 127.191500 1533.608202 3 4 10
-31.498575 39.249710 1530.264572 3 3 8
-34.307867 -51.034862 1526.528970 81 136 170
-26.346229 81.952401 1523.217346 5 5 12
-26.533213 79.539049 1530.117357 5 5 12
-27.228268 22.291514 1505.755143 120 160 190
-29.667772 -47.807018 1531.979995 4 4 11
-24.989459 35.253134 1525.848922 96 146 179
-21.109107 123.150875 1528.997685 88 137 173
-27.876380 -58.614867 1508.807528 98 147 177
-20.828956 29.817279 1514.920171 83 107 137
-24.330466 -64.027033 1506.832602 28 74 105
-17.132675 29.530275 1517.226278 0 27 55
-19.239311 -58.767555 1420.063265 80 122 143
-12.109442 91.044953 1517.384484 80 126 159
-17.746708 -54.081269 1507.369093 56 100 133
-11.192388 34.039999 1526.126621 94 146 180
-8.328903 97.846769 1509.651683 60 91 125
-7.271277 115.084040 1512.202250 36 58 87
-4.795902 118.421620 1514.089864 84 123 151
-3.343422 -56.852500 1503.953590 53 91 119
8.914516 19.134595 1501.778789 66 103 134
8.625560 -51.147342 1414.871406 75 115 138
14.976358 -51.640521 1515.056641 83 145 178
20.043035 -47.244379 1516.493153 0 5 11
27.083121 109.384308 1507.959209 41 71 100
26.056284 -52.052262 1505.402569 76 134 170
18.308293 -59.628948 1467.892061 57 117 149
27.408379 -53.934950 1501.013970 9 49 79
29.121926 -51.142711 1511.718457 86 143 177
30.946029 -54.770931 1408.733974 40 76 100
37.876865 17.534664 1497.689318 53 93 123
49.433466 105.553218 1516.237959 99 141 171
47.871916 19.090231 1511.093311 71 116 150
47.526077 -79.214739 1419.958676 1 3 10
47.506147 -77.491120 1416.517075 1 3 10
53.153207 -52.147416 1504.357328 13 59 91
63.309395 91.175955 1506.633371 66 112 145
63.305881 -53.900156 1492.745033 74 129 163
60.106303 -57.780926 1403.547384 11 36 60
61.581067 -52.689519 1408.189813 11 38 55
61.581067 -52.689519 1408.189813 11 38 55
61.838990 -67.699350 1405.664503 15 37 50
61.838990 -67.699350 1405.664503 15 37 50
73.841753 2.897282 1504.875251 84 132 165
69.086557 -50.039903 1407.637113 63 96 114
73.172043 -60.768558 1487.007765 85 141 170
77.599815 62.133555 1510.306690 0 0 3
77.599815 62.133555 1510.306690 0 0 3
76.120933 21.177211 1492.192873 94 136 168
76.120933 21.177211 1492.192873 94 136 168
77.648071 29.136295 1498.427949 91 129 159
69.907748 -60.546947 1393.172866 69 101 116
77.495535 12.757704 1490.719791 106 147 174
81.303135 -54.154506 1495.373884 1 23 44
85.990029 100.770973 1501.926672 40 68 94
76.276992 -83.058783 1403.735343 68 91 101
76.935205 -45.573893 1397.527782 84 112 131
79.114041 -54.503837 1391.209576 88 131 153
80.303652 -44.643759 1395.083309 6 35 57
86.289760 -53.289429 1490.877398 55 78 93
88.475080 21.433824 1485.784973 81 113 138
92.971923 120.169803 1497.543319 10 31 53
91.932997 20.231674 1484.965792 34 70 96
95.834333 121.283997 1489.997388 75 107 132
93.864451 -7.478828 1484.817962 65 86 103
97.435693 125.525419 1492.761199 40 74 99
87.926074 -46.253452 1390.001311 37 73 99
87.926074 -46.253452 1390.001311 37 73 99
95.708110 31.298982 1482.581051 82 118 144
95.211088 -46.715487 1481.059664 97 136 161
97.909090 37.566099 1483.578942 1 26 45
101.083578 -43.716650 1481.416489 73 116 143
103.605179 -44.103529 1498.197095 7 28 45
110.769271 -76.055253 1383.458757 77 124 143
123.818789 65.550152 1483.383737 81 126 153
123.089379 -82.866192 1403.849870 128 175 198
136.366391 50.459528 1480.280399 85 131 162
137.714005 3.250157 1475.286925 30 65 91
146.789540 -48.155664 1396.819486 98 147 171
146.997511 -59.672523 1392.714583 78 112 134
158.469717 67.151265 1478.461342 105 145 170
149.687198 -75.898602 1398.567644 27 51 66
158.934410 -5.450526 1470.237215 101 145 169
151.254007 -92.608961 1399.694082 0 0 2
166.200894 -50.402173 1462.254793 100 138 163
159.519277 -60.666945 1398.089573 38 70 91
176.913684 70.035803 1519.885248 1 3 8
162.301675 -88.941105 1398.505751 62 95 114
171.964147 9.974042 1471.001890 93 133 162
164.169268 -77.539660 1397.991888 25 64 85
168.250623 -48.185358 1422.708049 40 66 86
168.250623 -48.185358 1422.708049 40 66 86
174.815949 27.365636 1470.099516 48 86 111
173.866439 -52.241981 1459.250617 64 87 106
176.858826 -102.729444 1409.310062 71 98 115
174.271592 -57.244037 1381.078835 6 29 45
194.113627 37.866842 1532.456925 97 134 162
180.713405 -39.549817 1430.089130 51 81 104
179.163151 -62.402828 1388.202493 40 71 84
185.208897 -82.941350 1386.667649 85 131 151
201.411740 -32.550552 1460.233465 100 147 174
207.599290 -110.336368 1414.746721 0 0 2
216.091853 13.000570 1468.870717 87 138 168
215.705409 -92.146293 1403.308692 94 142 162
231.551298 18.714006 1474.459657 57 102 133
220.769389 -60.281580 1394.561369 47 91 118
234.938529 -11.975060 1471.057513 91 143 176
234.250846 -9.474925 1465.253511 91 143 176
228.983456 -114.110464 1422.038466 0 26 47
237.227762 -111.041343 1422.799719 79 137 161
237.227762 -111.041343 1422.799719 79 137 161
238.952151 -115.349289 1430.976835 79 137 161
238.952151 -115.349289 1430.976835 79 137 161
244.134766 -50.819149 1429.734046 77 129 157
-186.125471 90.931998 1193.390237 60 64 70
-145.498684 79.619101 1455.393383 89 130 158
-154.680841 -7.234986 1463.488431 88 121 147
-147.083900 68.967035 1475.255432 89 130 158
-160.169188 -113.421956 1432.784852 62 95 112
-145.473283 85.010494 1513.130529 99 131 161
-146.889968 -109.492095 1442.927413 53 93 114
-146.889968 -109.492095 1442.927413 53 93 114
-140.597598 -95.661757 1430.264242 43 77 97
-129.297772 80.547110 1507.089636 32 58 85
-135.889849 -60.891882 1427.959040 49 81 101
-125.422828 81.186249 1492.789097 51 78 105
-135.072615 -95.520647 1431.722961 58 94 113
-117.556192 79.079543 1472.373484 104 143 175
-122.080820 -1.856321 1460.319896 90 130 158
-115.982487 -7.170601 1431.758210 90 117 138
-116.033591 -9.498356 1443.327318 78 115 143
-115.459665 -20.256390 1424.277285 103 136 158
-119.197064 -88.671153 1428.242881 168 199 214
-112.942362 -12.050527 1440.890253 16 41 65
-108.242280 80.310559 1505.148881 70 98 121
-113.855795 -60.132424 1424.077531 55 82 104
-110.285511 -8.458954 1441.864238 76 112 139
-111.187337 -52.608590 1422.642674 32 62 87
-100.310829 87.271533 1484.263698 40 64 90
-96.797918 130.458517 1519.981034 97 135 166
-109.119787 -94.681540 1432.951102 39 47 54
-109.757729 -54.513284 1521.948139 80 118 146
-101.505940 -7.582643 1458.318992 38 73 101
-95.864547 -37.741844 1464.325641 104 140 168
-98.397332 -82.387978 1441.599232 56 68 76
-92.690713 -38.223523 1484.214848 137 172 195
-80.761014 125.688512 1533.170743 94 137 172
-82.294150 2.995329 1520.154487 105 150 179
-83.056648 -61.058373 1520.610915 98 138 170
-65.045970 112.700964 1517.358626 23 51 75
-70.901718 34.501735 1524.333034 43 83 119
-74.579249 -51.377760 1542.505433 104 143 171
-55.692686 62.188094 1529.889618 0 1 6
-54.525534 8.964672 1515.447888 56 91 115
-54.426995 -50.887072 1517.073432 42 91 129
-54.426995 -50.887072 1517.073432 42 91 129
-49.634360 12.724037 1510.091678 91 136 165
-41.879147 121.074772 1522.403562 58 98 134
-41.879147 121.074772 1522.403562 58 98 134
-45.925751 8.556446 1516.833360 86 128 160
-37.382481 106.423219 1511.426743 49 88 120
-37.382481 106.423219 1511.426743 49 88 120
-34.502621 102.441703 1510.597598 103 145 181
-39.239759 30.174698 1515.984934 16 49 80
-24.834505 106.871516 1512.044317 78 123 155
-18.261181 111.925356 1509.872012 95 131 159
-22.570671 27.700007 1512.441361 34 59 85
-21.692377 21.954950 1506.020678 40 74 100
-20.097118 33.258154 1521.544846 27 59 92
-24.406806 -49.502857 1526.289932 97 132 156
-20.526886 -51.469301 1510.202481 96 139 166
-5.231626 106.994000 1507.404283 31 48 73
1.215023 111.012290 1508.034311 75 111 143
3.729717 92.142421 1512.548792 42 88 123
0.292551 -51.844911 1505.044921 93 145 178
8.497343 -56.160761 1412.695961 91 119 136
19.956932 88.876917 1513.136090 93 131 163
13.125970 -54.969675 1501.411455 39 82 116
17.294987 4.269237 1506.885073 80 133 165
27.128951 109.600780 1507.299767 34 69 96
23.247252 28.900368 1508.330960 33 70 103
25.783863 26.069643 1501.684110 22 50 77
22.670985 -51.074105 1509.981946 31 80 115
27.931241 31.676486 1514.201212 29 74 108
31.971825 101.365400 1505.779052 28 55 83
28.257837 29.957502 1504.582738 94 140 173
27.451947 -54.247189 1501.703434 15 45 77
39.373924 -66.199218 1497.020180 28 64 93
48.527754 19.524788 1509.908444 78 123 157
52.352683 -59.826393 1491.161828 113 162 191
70.766147 117.715582 1514.724060 49 94 128
68.851548 -4.022938 1506.121432 0 3 9
72.915582 87.668620 1510.348199 59 90 117
74.866719 92.950095 1503.363581 18 50 80
75.388939 104.404295 1500.067307 86 126 160
77.634968 119.997199 1516.999777 94 146 180
72.651724 -26.619260 1509.640000 0 0 0
75.977928 62.226958 1510.394025 0 2 4
80.222082 15.581588 1491.022026 28 60 86
81.221945 -54.040461 1495.137532 0 20 44
80.767014 -60.299782 1487.840160 2 28 56
89.768939 125.983708 1515.874641 87 130 159
85.436632 -4.020340 1506.821211 60 88 113
88.022877 33.218197 1492.905982 61 93 120
86.320545 -53.494166 1491.327126 49 68 84
86.121615 -54.894612 1486.143186 54 76 93
86.121615 -54.894612 1486.143186 54 76 93
90.913753 2.936832 1490.184872 7 39 60
83.297273 -48.198799 1392.729529 95 139 158
83.297273 -48.198799 1392.729529 95 139 158
93.058529 36.423003 1496.203759 6 27 46
94.317084 40.289032 1507.508969 100 145 176
87.312223 -48.398935 1423.022444 90 134 151
94.049260 37.716481 1481.752297 27 44 60
84.865697 -68.373881 1393.441756 15 41 56
98.034117 38.950641 1495.497415 58 82 105
99.631746 85.425926 1490.298612 91 135 164
94.430358 -50.159340 1476.923896 96 131 155
97.171329 -44.338967 1493.640510 65 96 118
104.242437 38.188260 1508.931224 1 14 26
101.152440 -6.003523 1481.050774 102 145 172
102.948102 25.758230 1480.376550 94 143 174
100.723664 -49.045529 1479.760341 20 52 78
107.245183 93.050098 1486.831796 23 47 72
112.758053 125.778973 1516.359473 3 3 11
103.908723 -49.329484 1458.396405 65 104 129
110.505083 98.235312 1489.577857 85 117 142
108.628609 -37.367059 1484.329357 81 119 145
117.757171 106.024188 1525.296217 3 4 7
136.371224 50.873904 1479.181628 85 132 160
137.905360 -40.836790 1473.207414 42 78 108
137.951093 -40.911604 1473.322361 42 78 108
137.951093 -40.911604 1473.322361 42 78 108
141.704771 62.166289 1480.811725 24 49 71
131.630563 -67.549468 1396.335911 40 63 79
136.353502 -47.077700 1400.615439 76 111 133
148.491496 64.435840 1490.219826 64 84 106
137.708100 -48.374594 1398.004648 14 40 56
139.848251 -91.583198 1375.236220 1 0 3
143.316052 -81.440237 1396.202788 82 116 132
160.369370 71.898202 1499.552260 25 47 73
147.043089 -59.938958 1393.251065 80 117 139
148.708291 -87.702666 1398.819073 0 4 10
159.106832 -6.149833 1471.868091 105 146 173
165.305920 73.653724 1508.356424 98 140 169
160.245797 -20.068290 1470.373556 32 63 90
166.450637 70.611607 1500.560730 28 52 77
170.443897 65.884601 1479.805784 65 101 129
159.589891 -60.864218 1398.483423 37 70 90
171.990396 10.189615 1470.470347 97 138 164
171.654943 -53.197375 1465.916458 1 25 43
178.322277 61.992893 1512.106965 110 156 185
163.605726 -75.211692 1393.418539 27 63 84
173.447600 -4.768984 1469.578245 48 84 112
165.448976 -61.163241 1397.975755 18 52 75
178.312759 53.826473 1473.427455 111 157 185
168.058059 -69.259813 1393.709180 85 123 143
178.306017 -47.629925 1462.529562 20 47 68
184.900006 37.106901 1469.880911 53 94 123
203.557998 31.855697 1536.513454 0 9 20
198.660544 26.576830 1489.078347 29 58 87
192.066887 -41.516838 1395.802393 59 95 117
205.176380 26.935228 1478.060725 46 80 104
213.532079 25.887073 1532.714046 77 119 144
211.085186 24.127520 1467.823348 99 151 181
205.624992 -49.520033 1412.832958 119 180 210
217.757630 26.142793 1473.066854 43 80 108
219.082590 23.870092 1472.764750 102 147 175
214.666784 -66.202289 1406.548226 94 149 176
228.545226 28.674497 1486.922874 94 144 176
226.516243 24.899563 1471.642086 103 154 183
226.342127 -48.847848 1465.265939 52 76 98
231.393981 19.209029 1473.245835 54 102 132
231.393981 19.209029 1473.245835 54 102 132
236.371482 1.284141 1474.584306 110 150 178
238.644174 -42.410165 1472.733668 80 128 159
233.716697 -55.135035 1426.038140 50 93 117
239.050045 -127.420030 1431.143584 0 0 19
253.825222 -71.514971 1437.032734 100 140 162
-147.393351 115.324063 1567.602951 68 98 120
-144.785009 114.782765 1579.199757 81 115 138
-145.743735 115.104859 1553.709810 70 109 135
-143.461738 115.263893 1551.762023 93 133 156
-142.174072 115.870123 1564.363258 40 69 94
-155.149034 72.565129 1495.972499 3 10 19
-147.625046 73.290719 1499.211855 48 76 95
-134.169748 114.764747 1551.188466 18 57 89
-131.627841 113.772158 1560.641866 87 124 150
-130.288655 113.625330 1549.858040 82 121 144
-128.304708 112.857342 1559.218311 50 86 110
-139.337319 74.305045 1507.193988 21 45 69
-125.665923 114.104692 1576.188521 26 56 80
-120.132905 113.503463 1562.673254 46 75 98
-119.785252 112.545035 1548.215470 88 127 152
-116.135598 112.551808 1559.758913 92 131 157
-141.484369 11.730651 1460.029208 79 115 138
-142.229953 11.245878 1445.920680 8 30 51
-140.136637 10.282002 1456.323335 14 40 61
-109.722890 111.699460 1561.297474 43 72 97
-110.835835 111.782125 1541.581265 33 59 85
-112.604355 112.128688 1516.745545 50 86 114
-121.503716 68.820423 1476.949662 94 132 157
-115.823090 71.080881 1505.938232 11 31 55
-119.568943 61.418981 1473.521937 31 61 84
-117.984031 62.263657 1479.640915 29 57 85
-117.984031 62.263657 1479.640915 29 57 85
-109.753204 81.728512 1496.516061 23 45 67
-115.583840 62.253312 1476.981518 40 68 96
-115.583840 62.253312 1476.981518 40 68 96
-115.248238 59.923239 1470.482267 72 108 137
-122.211435 10.228054 1456.178484 27 59 83
-101.088906 101.173961 1523.390376 31 57 81
-99.012682 102.508727 1518.644789 14 40 69
-106.690314 70.610509 1480.087504 90 130 160
-95.590313 108.767788 1540.697233 29 56 83
-96.312395 108.011606 1530.141237 30 58 85
-94.598251 100.301838 1511.805976 73 112 144
-90.253867 106.753933 1545.090043 26 55 80
-104.625301 57.101257 1461.404093 109 149 174
-97.926517 70.060680 1501.292125 25 59 83
-101.234766 61.183087 1475.883881 30 65 92
-83.684161 107.354954 1543.649438 67 101 127
-84.875451 101.743431 1531.956358 33 64 95
-92.808388 70.726295 1496.252426 112 148 175
-84.435159 100.737185 1532.416112 33 64 95
-84.435159 100.737185 1532.416112 33 64 95
-105.103072 6.946657 1440.309409 73 110 134
-96.412714 46.434165 1466.294734 38 65 86
-91.407398 44.268626 1493.510630 68 101 130
-96.702037 7.435014 1447.298338 29 57 82
-92.543112 8.907294 1476.554860 40 71 102
-88.198735 23.879946 1489.123468 43 76 101
-95.696287 -13.002250 1428.364904 71 101 120
-95.696287 -13.002250 1428.364904 71 101 120
-91.673247 -7.090244 1449.537214 135 172 195
-80.932588 17.510437 1512.987607 152 193 221
-96.818853 -34.489480 1423.775184 82 121 138
-83.017914 -5.602845 1487.940176 70 113 140
-82.367712 -9.631783 1493.216902 70 111 138
-79.313403 0.527009 1504.636073 61 95 121
-90.816761 -31.209905 1427.555858 93 116 131
-86.914037 -17.388740 1440.416922 14 37 56
-85.163950 -16.663245 1451.386953 4 25 45
-81.404558 -23.845832 1462.852243 14 34 57
-81.686221 -16.751250 1445.257916 61 92 116
-81.059041 -16.766928 1437.868980 3 29 54
-53.961490 100.009371 1528.692998 34 64 95
-77.838145 -17.403571 1433.650436 57 96 114
-75.948970 -22.313445 1456.371440 39 83 122
-73.726051 -33.562129 1475.025053 1 5 6
-70.459888 -19.962614 1453.133752 0 28 55
-70.708118 -18.311421 1448.504271 0 22 48
-71.209207 -18.886573 1432.808039 61 99 122
-38.945810 98.998910 1527.866190 40 75 106
-35.777883 97.105266 1547.374852 72 91 110
-36.192325 100.548821 1532.173329 87 130 159
-44.509041 31.108284 1511.586148 36 78 110
-8.513121 253.256185 1387.666280 70 110 128
-33.090893 98.606342 1526.724326 41 66 93
-52.127791 -37.749575 1487.341761 0 0 1
-39.889140 30.171882 1512.599009 68 113 149
-28.954858 99.951753 1531.310138 103 147 171
-27.870208 93.692106 1522.081119 84 129 158
-20.563700 100.408973 1529.872992 101 138 169
-41.320370 -19.535896 1445.210446 53 84 106
-34.170139 -19.551532 1444.344678 34 63 86
-33.837835 -18.307775 1435.129937 60 97 121
-33.837835 -18.307775 1435.129937 60 97 121
-13.911487 94.539213 1518.058413 40 64 89
-31.792734 -25.178892 1450.917863 40 77 103
-32.849850 -21.831867 1419.275321 82 124 142
-26.614787 -20.962408 1420.211570 80 117 141
-12.317221 31.609569 1510.237921 92 137 171
23.715146 248.214401 1457.438959 79 131 164
-25.539253 -22.042232 1418.572626 89 128 147
2.400679 96.640071 1521.421262 35 68 99
9.591429 95.511147 1521.966764 38 76 104
11.356637 96.790686 1534.047756 85 118 140
-5.329518 -23.635759 1443.557525 5 31 54
16.511458 99.385810 1534.063733 22 47 66
20.228870 97.895583 1528.277417 27 56 86
-0.435935 -19.780473 1421.081538 70 110 128
20.812114 94.235351 1517.941650 99 139 169
1.701881 -20.946756 1416.028052 46 79 104
22.935415 96.682232 1524.899637 71 118 147
16.681212 32.972525 1506.407981 90 140 173
24.472409 95.686811 1537.434268 15 37 54
17.038309 27.453748 1503.396258 54 99 135
24.617785 95.042509 1520.038318 47 85 115
24.617785 95.042509 1520.038318 47 85 115
9.967453 -21.594222 1436.889415 63 97 116
30.406093 93.726625 1515.754362 92 132 162
14.251787 -20.162682 1432.312988 3 23 40
14.646932 -20.444685 1418.481003 79 119 141
28.890591 31.383624 1505.590480 90 134 166
18.021904 -21.379015 1435.743459 54 88 109
20.918058 -20.709011 1431.167467 0 15 35
33.497480 32.473499 1508.112837 48 84 120
35.613004 -24.247395 1496.515305 0 27 57
29.998179 -20.324837 1424.720566 75 108 123
48.064382 96.908261 1520.701857 87 130 159
51.731566 94.362584 1516.029713 36 70 98
53.539788 94.744896 1513.124996 92 132 162
57.447454 95.784220 1514.367768 30 67 98
61.937565 89.461440 1537.340469 53 78 99
43.967444 -20.779599 1415.787742 42 71 87
63.057566 95.752824 1518.382222 105 148 175
66.844266 97.076111 1521.119540 32 65 96
53.346762 -21.078308 1426.568618 0 13 31
70.944258 94.808837 1513.975986 55 84 114
57.263496 -31.198636 1439.539513 33 49 62
56.933206 -21.421163 1429.446327 73 105 125
74.918892 96.167388 1517.880377 103 142 169
60.508116 -20.121630 1425.571437 0 13 32
75.054239 94.214182 1510.640751 103 145 175
77.294644 95.082172 1514.149978 21 50 73
77.294644 95.082172 1514.149978 21 50 73
65.987011 -27.855370 1436.657789 62 85 99
67.437853 -20.109276 1419.233514 61 95 117
64.396067 -30.572074 1391.894419 0 2 3
69.711489 -26.565518 1433.710373 0 15 30
74.334692 -24.034134 1458.920609 0 0 0
67.676449 -20.902182 1406.307048 0 18 33
81.859661 -25.841471 1483.828933 61 108 139
72.122601 -21.308607 1399.380854 61 91 109
88.856767 100.055502 1504.946361 17 40 57
89.376532 104.589998 1507.492279 5 26 43
91.817012 102.585711 1524.472704 95 130 150
75.014345 -16.856599 1405.265300 55 85 104
94.860842 104.327300 1534.079006 82 113 130
91.610916 103.845073 1502.742566 75 102 123
91.573738 102.884876 1499.200343 26 50 67
94.413512 102.264940 1513.834786 73 109 132
77.176321 -23.769296 1391.628832 58 81 95
80.970258 -18.475890 1419.096488 2 23 36
79.827015 -21.681720 1394.831090 2 19 36
81.075849 -13.194871 1400.493641 5 33 52
99.135974 103.289237 1518.559995 36 72 101
101.653270 102.425258 1532.444255 97 133 154
98.125327 104.584110 1503.458286 53 89 117
97.830217 86.147814 1496.725928 98 141 168
83.761037 -14.543624 1396.772355 72 108 125
97.311774 57.000879 1486.459563 26 39 53
97.311774 57.000879 1486.459563 26 39 53
91.789930 -14.099253 1431.775891 73 108 130
89.158029 -24.544130 1382.961196 0 1 5
108.385802 81.035984 1517.663885 99 145 175
108.385802 81.035984 1517.663885 99 145 175
98.921807 -30.228998 1448.318072 0 0 2
105.440601 41.256951 1488.371547 93 125 149
105.440601 41.256951 1488.371547 93 125 149
97.786461 -11.884585 1432.504492 67 111 134
112.719876 82.792480 1536.219961 0 2 9
113.177674 83.971159 1536.329513 0 2 9
109.620678 86.113232 1502.344596 52 80 105
108.772169 83.694504 1495.182238 94 125 154
105.952524 -18.365687 1474.125897 16 44 71
116.534635 81.777945 1529.302832 68 110 140
113.108333 81.725284 1502.270111 27 54 80
96.992006 -23.239643 1384.045186 90 130 143
113.350802 81.734728 1495.063274 30 63 87
108.244673 -16.452227 1444.954243 72 109 132
110.686882 -17.579253 1455.501791 61 97 118
119.347366 80.211332 1515.133580 26 62 90
125.624341 81.308580 1529.296595 71 100 118
117.759806 -18.114370 1457.438678 64 101 127
124.082485 82.403944 1501.038615 28 62 87
127.239283 80.603280 1511.606522 70 110 144
131.700232 81.530234 1533.389106 0 0 2
132.752302 84.222325 1526.219001 55 87 114
115.491564 -35.487183 1386.459143 92 137 155
136.328928 85.893480 1519.806258 46 69 95
134.592931 81.551288 1503.416948 74 113 139
133.328525 82.963143 1491.278581 96 144 171
138.805630 82.687261 1526.533952 25 54 77
136.840900 82.724168 1498.644766 37 65 88
139.650843 72.411713 1486.707136 103 134 159
144.217458 56.391957 1486.407306 21 41 63
146.659732 60.383981 1496.815550 24 52 77
134.976357 -30.882121 1394.535440 0 5 15
144.045028 -14.508023 1465.857514 16 42 67
144.045028 -14.508023 1465.857514 16 42 67
152.643644 55.034446 1520.485019 35 69 96
149.263832 59.390017 1494.688973 68 95 118
152.681686 59.463925 1510.753442 9 33 55
150.790936 60.703021 1488.702160 8 21 35
142.253680 -11.178286 1397.300131 67 97 117
155.523719 65.660353 1500.995530 88 119 148
143.918832 -10.948653 1394.088610 19 47 64
154.321447 -15.216200 1465.167573 29 58 83
158.933352 64.503090 1499.251627 33 63 90
158.449477 64.794719 1493.439466 75 113 139
169.815530 63.019700 1538.012232 0 0 0
169.038260 75.856024 1510.767865 91 131 160
167.815061 65.332653 1503.813752 21 46 65
170.679470 61.024990 1523.319765 0 5 7
167.595157 65.707418 1490.993557 48 84 112
161.466010 -13.895979 1426.428409 67 98 117
167.132891 66.187854 1483.108701 107 150 177
167.622718 -10.908348 1461.637350 31 60 86
163.682321 -15.256550 1433.486012 64 98 121
165.238729 -14.040890 1430.132678 21 49 70
172.304976 61.393845 1498.806429 95 142 171
167.253149 -13.681322 1442.780710 26 59 81
174.555182 63.197160 1509.573877 60 100 127
174.518308 62.121942 1505.245289 122 166 192
171.432265 63.464030 1482.150730 34 70 98
173.072579 -12.335199 1456.474474 95 129 153
172.774553 -13.670746 1450.999725 78 113 141
167.567687 -13.147536 1413.801209 62 104 129
170.455990 -14.273340 1432.358370 71 101 124
174.338013 61.473828 1479.036409 121 164 191
178.484056 -15.230305 1460.587749 5 25 44
177.238390 -14.624572 1449.894354 2 27 50
179.212235 57.614069 1478.000354 47 84 112
183.865396 61.461929 1502.713254 103 145 171
183.865396 61.461929 1502.713254 103 145 171
180.994551 54.384212 1474.653261 109 156 185
188.247270 56.945056 1519.209654 91 137 164
182.843499 -8.466218 1463.265686 78 114 135
183.713989 57.953971 1481.027572 96 140 170
183.748680 57.926583 1481.050056 96 140 170
184.319657 -11.694903 1458.852214 7 30 50
180.323184 -11.027168 1430.009377 24 47 66
184.919232 48.928958 1473.092502 46 86 116
188.820502 49.193570 1473.588404 43 80 110
190.262904 48.278528 1480.715921 42 80 110
192.415133 47.974595 1493.840352 47 93 124
187.729361 -12.020609 1444.042113 40 64 88
193.757181 49.233340 1497.952227 104 148 175
193.757181 49.233340 1497.952227 104 148 175
198.845887 40.269282 1492.932438 96 134 162
202.929967 37.441593 1489.726179 25 46 71
202.191745 -9.177742 1454.562722 26 51 72
205.873920 38.933421 1493.049885 102 145 168
213.136876 37.002573 1531.261814 68 104 136
208.034065 38.251385 1496.189120 63 101 125
214.162236 39.274951 1501.452595 40 65 91
203.069347 -2.219463 1403.892773 46 82 106
210.589929 -8.501969 1452.850003 69 95 118
210.589929 -8.501969 1452.850003 69 95 118
213.309459 41.291396 1470.252518 34 68 95
225.069427 36.234191 1527.517247 81 109 129
211.602348 -3.531371 1407.623118 121 177 207
226.539659 37.747516 1520.893859 105 133 154
221.537557 40.151101 1472.817340 26 50 76
221.938197 -7.517666 1453.950087 34 57 78
228.922613 36.639698 1510.156186 86 114 136
231.445861 40.415579 1499.890018 67 95 115
230.054683 -7.564149 1461.140532 19 43 65
232.954896 44.342343 1485.444964 87 125 152
238.664393 -6.233031 1463.545708 41 69 94
239.462121 -5.574084 1449.880011 35 70 98
241.033758 -0.915107 1425.043000 25 55 78
245.809927 -4.863948 1448.379650 35 71 93
249.344310 -0.007573 1426.017627 35 69 89
257.757961 -36.429835 1416.642582 0 0 6
-152.521120 98.635317 1545.959045 82 113 137
-144.118441 88.479238 1611.157321 9 27 42
-141.339220 93.081097 1605.597506 85 125 151
-128.822426 98.712119 1577.556416 35 68 93
-146.921904 21.296167 1432.279579 86 119 137
-142.776971 21.238898 1449.646337 55 83 101
-128.066267 69.641970 1484.658395 65 96 125
-107.934002 99.475547 1524.489661 91 123 152
-114.191267 67.691943 1482.211032 84 122 150
-96.020074 97.782188 1557.044612 55 84 110
-97.379914 94.464841 1524.138668 84 126 158
-94.129791 89.502130 1557.898651 119 154 183
-114.920631 21.780009 1444.709190 54 86 113
-91.215624 93.601768 1550.922684 36 62 87
-90.532904 90.043212 1556.136126 37 63 88
-91.539121 95.409179 1538.409823 93 136 170
-98.716134 66.015214 1479.947841 98 139 166
-86.776945 92.585370 1532.032248 36 69 100
-92.528851 66.412519 1500.359939 112 149 174
-87.866213 79.591672 1518.988339 146 183 208
-104.222319 20.498917 1436.676457 38 57 71
-77.929126 94.349392 1536.571373 87 138 171
-77.929126 94.349392 1536.571373 87 138 171
-98.727261 8.510147 1431.922098 24 43 63
-73.764087 95.633732 1543.758522 70 108 136
-98.946093 5.818382 1424.409069 79 121 146
-95.145553 13.100559 1439.114273 91 125 146
-70.725824 -0.633521 1453.820835 41 71 98
-49.465133 95.570137 1540.472617 89 128 155
-37.847448 93.669157 1531.600785 89 129 161
-49.556669 6.615961 1486.497120 0 0 0
-33.872898 -0.123154 1442.114321 0 16 33
-11.275141 -10.986376 1451.699583 35 70 94
17.736812 86.076886 1545.458484 0 0 0
42.979895 -9.911589 1497.813925 34 72 102
28.504061 91.320571 1517.301276 54 87 116
32.567784 -2.358486 1426.183427 77 111 129
56.781513 92.974395 1518.489427 103 142 169
62.410545 94.746959 1524.020480 92 118 141
43.813833 149.078342 1539.770719 0 0 0
73.506156 94.641415 1528.572175 14 30 45
76.121276 86.769551 1539.989817 0 0 0
64.539663 -6.763964 1434.645812 0 19 38
76.059049 92.372942 1513.181537 29 56 77
68.037665 -3.736960 1412.548727 56 83 103
67.797793 -10.899946 1395.096309 0 0 0
86.376312 100.634184 1525.639513 21 40 57
93.565859 -3.893866 1438.657303 0 11 25
93.760246 -0.248061 1433.610159 69 105 124
103.848537 -3.020386 1413.107761 24 56 77
107.955710 -3.912901 1416.842846 31 57 74
132.521458 84.037591 1521.167929 22 53 79
132.521458 84.037591 1521.167929 22 53 79
121.075110 -4.108648 1416.398911 11 35 54
120.015555 -5.501208 1384.298461 103 147 165
137.313543 84.437798 1529.231976 73 101 119
130.209653 -7.923820 1390.966456 97 134 153
138.296160 -8.688460 1403.690109 76 116 139
151.114860 65.167156 1501.215664 20 54 83
145.101267 -4.279848 1436.957365 10 41 63
142.415102 -8.261448 1394.618471 55 76 88
155.380034 67.888862 1500.916815 94 123 150
158.514205 -4.056481 1400.764981 93 134 155
157.388553 -13.640324 1372.480497 0 0 0
161.656348 -16.407480 1393.224649 0 2 12
181.753706 18.107912 1464.828562 18 42 60
185.882617 62.773330 1522.758246 5 28 44
194.271451 54.529864 1514.667934 39 78 106
199.273044 50.810439 1540.839392 0 0 0
206.266789 45.777483 1536.219482 82 118 140
216.272491 24.440938 1535.389727 65 104 129
198.665558 0.009434 1395.126067 33 62 83
222.239167 44.227157 1521.121437 20 50 70
219.152415 -10.608498 1400.733435 93 154 181
224.902888 -11.747832 1389.077111 97 143 168
224.902888 -11.747832 1389.077111 97 143 168
230.940892 -12.064819 1389.679958 0 5 22
231.124641 -12.910138 1389.485313 0 5 22
248.870045 -19.714981 1404.141933 0 0 0
258.102836 -5.804754 1426.597657 103 144 165
-152.201915 100.817179 1520.855545 77 115 138
-161.377729 74.600737 1478.551983 5 15 26
-152.845266 71.663377 1475.696645 70 113 138
-152.845266 71.663377 1475.696645 70 113 138
-128.726337 95.496466 1577.150419 25 54 77
-134.813881 103.526902 1516.494715 108 154 176
-114.057518 103.007482 1517.182599 47 85 111
-124.835201 71.843843 1467.426114 100 136 157
-104.824254 9.773151 1585.272184 130 168 200
-120.305391 23.418194 1426.880948 70 115 137
-93.424454 81.210217 1510.976872 135 175 202
-113.780190 22.504075 1430.606733 27 63 88
-101.493065 64.990004 1467.573841 51 86 112
-77.202137 95.943002 1536.442254 84 126 156
-73.473506 96.153588 1543.587316 71 108 134
-87.953374 37.608611 1495.080033 149 176 199
-86.618778 -60.285869 1579.678456 6 10 16
-73.515751 -48.866667 1563.911305 4 9 15
-81.662254 -9.345958 1459.707530 37 68 97
-79.638162 19.223128 1408.924469 0 0 0
-80.730953 0.110436 1421.344325 0 0 0
-75.766724 -2.766559 1444.802827 8 35 56
-75.636534 -0.733776 1434.990426 58 90 117
-41.577332 94.495867 1524.778245 35 70 101
-36.859131 95.621645 1537.989330 14 42 60
-36.859131 95.621645 1537.989330 14 42 60
-37.003203 95.159323 1531.420673 89 131 161
-32.436633 95.164371 1533.090174 39 84 113
-28.776129 96.640332 1537.389137 93 134 154
-3.615529 -7.543579 1444.849650 1 28 51
1.158280 -10.985608 1447.394084 43 78 104
31.832623 -2.607699 1426.522293 76 106 122
69.813687 -7.927607 1430.669934 38 64 82
67.558460 -2.112781 1413.164573 58 85 106
69.527790 -2.073826 1408.849278 1 19 35
75.265485 -15.198322 1438.531798 33 51 66
81.750418 -7.782238 1397.396828 1 27 43
85.739862 5.379847 1399.695187 84 118 134
86.887496 5.647746 1406.408631 73 107 126
87.662867 3.766996 1395.517865 7 37 58
123.712331 81.271249 1509.038597 35 78 107
123.712331 81.271249 1509.038597 35 78 107
107.880785 5.871014 1388.018157 111 157 176
132.290094 81.917165 1520.968883 25 52 77
139.565284 81.168128 1523.050625 98 131 155
139.565284 81.168128 1523.050625 98 131 155
136.285390 82.941766 1498.410036 31 60 83
140.215024 81.469563 1520.292386 45 77 101
128.375554 -0.841935 1386.534858 0 1 9
155.089358 66.277662 1500.840918 84 120 147
174.820844 60.770342 1494.860581 55 95 124
177.560794 61.440944 1510.680115 88 129 154
180.144247 60.896077 1506.458946 67 105 128
172.874914 2.503779 1402.165030 15 43 64
196.426326 47.559959 1505.549747 94 136 161
197.916070 42.239685 1490.096942 103 142 172
200.924005 -0.244820 1385.408988 108 142 162
202.734894 4.681096 1400.904984 38 78 97
210.181716 -5.519373 1387.374833 0 0 5
222.236124 37.281022 1494.534531 58 89 109
223.805795 37.881461 1490.780768 100 145 169
223.805795 37.881461 1490.780768 100 145 169
233.888929 -2.131677 1405.809347 0 2 11
247.917188 0.678165 1472.484863 91 133 159
252.200043 -17.129727 1482.706726 0 0 0
246.134322 -7.787111 1416.195743 0 0 0
253.946238 -4.396799 1438.992577 46 79 97
-162.676029 -9.575685 1620.713038 13 17 26
-152.765417 98.307347 1578.942645 7 20 33
-143.025416 61.745781 1610.742372 82 112 135
-152.173025 107.275515 1543.053608 78 108 127
-138.981051 50.106132 1610.767346 116 158 190
-137.261840 74.068759 1600.703255 105 140 162
-132.724287 71.368049 1600.678383 46 62 88
-144.575993 113.114806 1522.730454 94 139 159
-132.866593 50.336949 1607.941727 83 116 144
-137.843945 13.182601 1612.365077 28 37 53
-133.603216 34.639132 1607.909929 68 105 136
-132.174866 42.701666 1607.723577 139 181 213
-133.366541 1.725786 1605.704184 127 166 200
-123.042243 71.194441 1597.598154 56 90 119
-124.638935 47.097866 1595.872013 54 88 119
-146.857861 88.325276 1474.200913 10 16 23
-129.654518 -21.683175 1603.820141 112 150 186
-108.459539 87.762141 1583.365303 12 37 59
-114.451178 4.891516 1588.492480 159 203 234
-121.450122 -71.423449 1601.756613 140 184 222
-102.976879 84.240339 1568.192057 47 60 78
-116.629594 -60.460281 1598.113746 164 212 246
-110.419862 -18.415639 1586.136980 155 200 236
-109.630748 -22.571930 1587.245289 78 117 152
-94.820263 92.617903 1567.587028 33 68 94
-95.858463 78.282055 1569.877556 116 158 190
-115.606647 -107.274705 1589.441330 184 230 255
-95.363063 80.717975 1566.697913 42 68 96
-101.268119 18.617300 1574.122280 92 134 168
-112.477339 -100.218649 1594.116484 184 230 255
-112.477339 -100.218649 1594.116484 184 230 255
-93.603735 100.128133 1551.660747 87 120 143
-103.209851 -12.377657 1572.466769 154 196 234
-100.753894 -6.757622 1571.616659 67 103 140
-103.261862 -31.193522 1571.803358 90 123 154
-98.106585 5.846147 1571.164908 159 198 235
-98.672592 -2.512388 1570.883406 160 205 241
-94.567835 36.077893 1559.015411 145 187 224
-96.142292 -27.729354 1569.138247 159 208 249
-84.723345 99.713978 1545.654782 77 107 131
-83.590416 75.454672 1558.068241 150 186 219
-90.158617 91.742611 1518.036306 133 176 202
-85.580951 60.919338 1556.771022 152 194 226
-85.580951 60.919338 1556.771022 152 194 226
-90.007966 -32.567146 1566.311509 95 131 166
-89.155937 -44.720454 1564.544808 173 209 244
-89.958396 -85.945477 1571.978197 2 6 12
-89.958396 -85.945477 1571.978197 2 6 12
-82.948078 -4.379899 1554.841446 145 195 237
-80.119291 20.359043 1546.218148 36 64 93
-82.650436 -57.688673 1554.956775 100 135 169
-76.598216 -33.031694 1553.184991 71 110 142
-76.598216 -33.031694 1553.184991 71 110 142
-73.104744 4.422066 1547.511841 148 200 237
-55.358253 102.759542 1537.585654 80 116 144
-74.776615 -33.751963 1539.481358 140 182 214
-70.094776 -54.172074 1543.569875 163 190 215
-67.199126 -35.734371 1536.564937 70 102 135
-48.689819 98.775479 1541.637716 96 134 156
-51.161991 31.899219 1531.268083 11 41 68
-73.511747 18.416492 1406.671598 0 0 0
-42.815252 -59.817262 1571.905790 0 0 0
-33.507218 88.562972 1546.871919 24 53 73
-37.245842 25.901241 1535.193331 11 38 65
-43.146846 -30.917571 1527.013328 22 60 97
-43.146846 -30.917571 1527.013328 22 60 97
-29.265422 99.386164 1532.125482 108 151 172
-35.875618 -46.309528 1535.152066 58 84 107
-33.827943 -34.231034 1528.700771 67 111 142
-33.539577 -33.721211 1529.074557 67 111 142
-22.202898 -40.860538 1530.894818 42 69 97
-22.112431 -38.157186 1528.936845 28 58 90
-20.847578 -45.349076 1531.444812 101 142 177
-19.828899 -42.437555 1531.872095 133 158 185
-16.394437 -31.717547 1523.324043 73 107 140
-11.252845 9.264771 1534.450095 105 141 169
-14.017132 -34.269151 1524.371260 22 56 84
-7.963577 30.736529 1527.786495 13 41 66
-6.471675 -32.017336 1523.533055 80 128 161
-6.471675 -32.017336 1523.533055 80 128 161
12.202741 87.986387 1541.832448 23 53 78
15.803502 97.224717 1533.646582 29 56 70
16.658366 97.497228 1529.782996 86 126 149
7.675237 -44.748412 1526.247521 105 153 186
19.875455 99.050631 1528.738203 22 61 86
22.307608 99.137386 1532.100089 77 114 133
22.137537 25.433886 1527.622717 14 38 61
19.470079 -34.016762 1518.689906 110 142 169
29.962785 98.297663 1519.649590 36 71 97
26.635544 -34.536667 1517.173381 106 137 166
29.187246 -44.449631 1519.991501 133 183 216
28.957773 -33.167695 1514.870892 21 53 79
32.193609 -33.493630 1516.219311 61 85 109
48.173971 -43.533574 1517.276822 160 205 241
31.987471 17.685698 1566.983539 2 9 17
61.214915 89.924613 1533.620140 60 88 111
62.951511 98.878592 1524.264127 91 124 146
65.992107 98.657312 1521.296694 43 79 108
63.931012 -26.499379 1503.640085 22 50 79
75.873468 88.179902 1533.989445 17 38 55
79.720612 25.046982 1519.075545 75 104 125
77.300065 -37.668635 1509.669952 34 68 94
64.680733 13.495259 1552.159550 133 183 216
93.461038 100.711711 1533.000477 81 112 125
87.936453 -36.023348 1508.768443 19 48 70
101.649047 94.893987 1540.993250 54 87 103
100.170037 93.779698 1522.501060 96 136 152
103.085248 -53.541161 1514.272134 0 5 11
105.659144 88.615929 1519.595032 55 94 120
105.926238 85.916637 1513.685034 99 135 161
110.758530 -44.904889 1512.301348 150 200 232
94.135177 14.466726 1398.844897 68 107 128
111.209336 -12.195868 1510.841647 6 35 60
124.320878 78.305651 1525.855197 78 111 133
127.834190 77.322055 1527.026762 15 32 50
134.807432 73.130137 1529.737878 12 23 40
135.535599 -46.131601 1503.308107 64 94 124
135.535599 -46.131601 1503.308107 64 94 124
138.522556 -52.599427 1504.416218 135 161 180
136.049241 85.539735 1499.422497 32 64 85
141.155825 62.194482 1527.460609 106 145 166
138.475701 86.543294 1493.420168 80 121 142
146.550510 -27.592843 1508.171532 140 181 212
131.337028 9.985734 1397.654169 81 108 125
149.095841 20.946353 1513.480075 29 62 93
151.837175 -8.152904 1505.995123 32 64 93
150.822919 49.701106 1504.535943 7 36 58
153.444574 -42.995383 1501.874516 30 65 96
153.444574 -42.995383 1501.874516 30 65 96
151.111334 64.636480 1500.890272 31 66 90
154.648003 65.250203 1500.313947 82 115 140
168.195106 0.449709 1503.368749 115 153 183
168.312609 60.986423 1512.490713 104 146 171
176.940061 49.123944 1516.656686 69 102 123
174.957281 61.279922 1479.253822 88 130 153
182.751860 48.295962 1520.206382 14 28 37
182.751860 48.295962 1520.206382 14 28 37
185.732667 52.813373 1515.886335 90 129 155
188.083476 40.662167 1519.673199 85 126 152
191.501006 44.301659 1501.432881 38 75 100
195.039291 43.057025 1503.592439 94 137 159
202.819307 -77.439587 1509.659679 144 172 193
195.404570 46.576603 1483.926337 85 125 150
202.060835 19.096785 1525.184576 84 120 144
197.056268 37.895592 1486.084579 97 142 168
204.121574 17.089846 1529.789576 95 130 156
199.396723 33.982694 1493.628543 99 136 162
203.302354 33.924601 1484.886020 77 114 140
220.429444 -66.548419 1527.357530 128 163 188
201.991472 10.191825 1391.560636 64 103 120
221.648496 -47.875825 1522.982091 111 146 167
219.271279 15.277801 1531.511904 59 92 110
225.674780 20.760426 1517.169793 108 148 171
221.523463 35.870950 1473.659741 21 51 75
229.574305 32.151700 1492.856509 49 81 103
229.574305 32.151700 1492.856509 49 81 103
235.259257 2.728983 1414.972078 74 105 125
241.026984 -3.428771 1425.304447 69 100 122
242.614138 -4.397892 1428.599774 26 56 78
251.433711 -5.333948 1429.534845 34 66 88
-150.706995 106.448388 1557.119905 81 117 138
-143.195409 101.976412 1569.152778 57 87 108
-144.577780 9.214726 1638.790390 14 16 24
-140.997239 34.401528 1606.680492 111 148 180
-139.012020 26.480512 1606.601638 108 147 180
-134.104761 19.200652 1605.582706 108 153 187
-132.060630 104.241019 1566.077333 94 133 154
-124.565690 76.680381 1597.260494 125 166 191
-124.491357 83.277137 1591.989113 115 147 170
-130.089504 7.869719 1600.889498 133 174 209
-133.193879 -15.396118 1600.415464 108 155 191
-127.053917 2.014225 1602.601444 141 182 214
-122.575569 43.056867 1594.933105 113 160 194
-121.040995 48.820119 1592.217379 126 169 201
-130.497911 -38.009744 1598.673770 115 158 194
-125.995980 -17.151637 1597.274556 144 196 233
-128.981998 -49.925395 1598.213980 121 161 199
-117.849141 43.877673 1593.936116 131 175 203
-126.933306 -64.250588 1596.821875 134 180 219
-121.257212 -39.970153 1596.731076 136 185 222
-114.434305 44.158122 1578.996131 122 166 200
-119.511815 -44.769453 1595.800535 91 133 169
-118.330778 -70.599581 1595.525562 77 118 153
-102.714539 70.899861 1568.260276 52 78 104
-122.769315 102.593177 1479.498785 6 11 15
-121.299622 105.019679 1482.932499 6 11 15
-106.901569 16.016995 1573.393791 65 106 140
-105.448701 22.595600 1574.273477 146 192 232
-110.646290 -52.490133 1584.099930 80 122 159
-110.646290 -52.490133 1584.099930 80 122 159
-103.286538 23.570263 1570.641032 138 185 219
-107.155889 -11.108414 1571.009630 86 126 158
-105.479742 -6.986246 1569.793652 152 198 234
-107.174706 -49.046888 1581.933106 160 203 239
-113.719890 91.013493 1479.907372 26 30 41
-110.568631 -103.420997 1581.980097 164 189 212
-104.906825 -55.587545 1582.738992 162 208 243
-103.994039 -48.047370 1578.936120 83 118 154
-91.155909 77.348729 1565.352865 65 105 135
-102.155402 -31.603244 1568.253717 151 186 225
-96.917268 -9.882477 1570.980785 157 200 238
-88.985548 97.477760 1553.736605 33 58 81
-104.633847 -103.470531 1581.941304 27 33 46
-88.906078 97.471901 1553.716632 33 58 81
-100.400204 -77.146662 1580.325537 107 148 185
-94.524485 -8.198280 1566.725153 90 131 165
-79.793930 94.172275 1551.669591 31 61 80
-84.595530 25.850076 1558.856756 145 190 223
-83.677512 40.851007 1556.542552 154 195 225
-77.048782 102.013757 1550.003436 18 43 60
-89.562856 -61.351388 1565.788789 90 133 170
-83.423618 11.677380 1556.247273 151 198 234
-90.612557 -89.747485 1569.238845 5 8 13
-87.548588 -56.815038 1564.039822 164 210 243
-82.914079 1.531516 1555.526547 139 194 233
-82.914079 1.531516 1555.526547 139 194 233
-84.569817 -19.883113 1555.239386 132 186 227
-81.970144 7.388718 1554.468071 85 131 169
-80.440176 30.156758 1541.143935 19 43 72
-87.107425 -83.895092 1559.340985 170 216 248
-79.924017 -21.249581 1553.841740 140 194 233
-77.274333 12.089656 1547.011305 41 85 117
-76.025623 23.380847 1545.951217 18 50 79
-79.343241 -37.984445 1553.530897 136 184 221
-78.026081 -29.082645 1552.873515 140 190 229
-78.045602 -41.869829 1553.719591 90 130 169
-76.984576 -34.614337 1551.991357 68 105 137
-75.594110 -37.727670 1552.800213 149 193 227
-74.483734 -44.226187 1553.124118 157 202 237
-66.501968 31.108756 1538.647379 14 55 82
-71.905227 -32.240165 1533.667444 21 54 85
-68.982844 -24.422675 1524.231823 81 122 161
-58.147603 31.262392 1537.145984 23 56 87
-56.326290 34.679041 1533.524481 100 142 167
-60.190806 -30.947903 1529.679397 29 67 104
-58.985715 -44.250660 1538.445593 9 27 49
-55.765372 -55.468964 1539.446587 0 1 10
-51.134029 -50.104746 1535.473844 49 77 105
-41.862343 -27.793063 1523.603164 81 121 153
-41.862343 -27.793063 1523.603164 81 121 153
-31.766684 34.864732 1529.887785 31 69 99
-36.020184 -41.127393 1533.506718 31 60 89
-36.465196 -28.228308 1522.507335 1 33 60
-36.465196 -28.228308 1522.507335 1 33 60
-27.509978 37.319005 1522.815237 58 106 139
-32.268224 -27.198476 1521.057000 76 121 157
-29.261530 -42.865584 1531.579697 14 33 50
-27.789034 -36.274616 1535.259737 43 66 92
-27.191530 -30.021666 1523.094709 20 57 94
-21.971851 -26.120129 1517.293496 34 72 107
-19.649833 -37.453728 1527.352894 21 57 87
-6.625480 -33.109103 1522.677530 85 133 166
0.170840 30.655466 1527.633471 11 33 56
-0.910820 -26.933344 1514.916743 69 114 150
-0.910820 -26.933344 1514.916743 69 114 150
12.167534 100.979294 1535.130013 93 125 138
12.182831 100.304970 1534.173974 93 125 138
